ncols  298
nrows  32
xllcorner     -25830
yllcorner      44100
cellsize     30.000
NODATA_value     0.000
86.917    82.747    84.739    77.677    72.564    77.318    97.156   112.219   111.964    97.299    81.114    91.287   102.196    99.406    83.707    69.983    72.563    79.613    84.390    87.987    80.906    72.171    63.570    61.215    64.858    71.652    67.455    64.760    65.684    72.970    83.184    94.755   101.497   100.300    94.420    95.613    98.197    99.837   102.527   117.219   130.918   128.957   113.352    98.778    88.763    90.091    86.427    80.108    78.792    79.897    80.104    82.850    80.420    77.493    79.458    83.372    80.183    81.118    82.930    86.191    89.537   102.480   113.280   124.253   132.795   140.858   142.788   141.195   149.172   162.902   182.510   201.829   213.111   224.173   230.703   230.428   226.003   221.490   216.219   202.840   200.148   215.592   220.639   221.545   218.647   214.058   206.868   197.202   217.804   224.746   217.860   206.494   221.333   240.162   257.339   266.872   275.482   284.601   293.802   298.316   296.656   284.432   287.785   306.746   325.449   341.732   340.811   325.662   310.926   304.002   321.704   342.775   348.448   347.602   340.848   346.042   359.811   360.052   355.044   355.751   353.464   339.036   355.665   363.897   356.844   373.337   395.491   406.082   407.791   404.424   406.495   398.152   381.229   364.344   373.454   390.440   392.945   387.232   372.496   362.139   356.158   353.010   342.892   341.192   358.692   372.818   377.614   365.600   353.336   342.155   333.463   321.615   301.119   295.177   298.908   293.155   278.745   264.669   248.332   254.475   255.719   246.253   233.481   233.137   236.409   232.823   231.168   229.659   228.347   229.629   230.884   229.738   224.828   218.896   216.893   215.199   213.196   210.932   209.538   213.626   218.415   222.727   225.151   226.231   224.283   225.838   229.274   230.762   232.764   237.919   244.063   250.499   256.262   262.274   267.825   271.485   272.281   271.538   272.241   273.846   274.285   273.007   276.623   279.917   280.026   278.853   281.627   286.750   290.692   296.115   302.524   307.826   311.101   312.683   315.692   323.257   329.615   337.049   353.693   366.298   381.798   393.829   403.583   415.769   423.080   430.302   438.287   445.767   462.275   473.534   483.768   494.260   504.191   512.165   525.266   529.531   532.167   537.123   541.904   544.737   546.462   543.171   534.467   521.240   525.415   522.232   525.003   538.682   546.522   527.882   511.430   505.966   504.949   500.408   499.083   509.639   507.948   487.206   475.134   468.226   478.608   488.466   477.907   483.186   493.794   489.916   502.121   524.416   524.809   525.320   523.060   524.905   531.695   520.420   529.699   541.769   539.341   529.749   511.080   503.725   502.465   509.174   499.083   486.058   482.171   483.453   469.636   459.057   451.587   451.560   460.592   466.283   460.716   472.351   472.273   465.674   477.986   492.199
77.541    73.764    72.645    67.765    66.873    80.653    98.593   108.290   100.169    85.145    71.783    76.905    89.198    93.982    83.028    70.625    66.275    69.135    74.845    77.106    74.190    67.201    59.939    59.585    59.758    60.643    60.374    64.946    71.619    83.303    83.807    84.781    88.704    86.424    84.100    85.594    89.165    88.372    91.646   106.629   121.607   130.315   119.353   103.806    93.786   101.374    99.941    91.800    79.731    76.986    76.894    78.469    78.810    76.163    77.151    78.315    78.450    80.560    83.078    85.918    88.780    94.502    98.893   105.490   114.424   127.676   146.960   161.271   170.783   179.332   192.924   200.199   202.168   202.283   206.031   209.900   209.540   205.066   194.059   181.583   188.993   206.119   209.207   209.437   208.643   206.148   199.985   186.226   203.240   206.184   192.621   197.343   211.278   224.265   237.432   248.786   259.765   267.398   271.059   276.091   278.723   271.226   280.976   299.263   316.016   334.428   331.711   318.299   303.911   296.305   311.841   332.355   334.909   333.235   332.843   346.109   355.675   344.722   332.974   336.344   335.005   330.156   355.212   350.322   364.423   381.505   394.962   397.618   396.900   385.968   392.810   393.844   378.144   358.358   355.942   372.943   381.075   370.002   358.498   349.794   351.779   342.000   337.036   333.170   349.875   365.164   375.631   360.197   339.967   327.016   323.811   324.896   320.857   318.478   311.913   299.416   282.641   262.186   258.563   262.181   248.752   237.550   236.905   248.384   255.188   250.683   247.330   241.417   239.205   240.875   243.215   241.569   231.871   220.194   217.713   215.651   213.516   211.442   209.538   214.221   219.330   225.970   230.011   230.124   227.753   225.766   228.817   230.554   231.710   235.549   240.002   245.574   249.601   257.465   264.870   270.692   273.442   278.208   281.140   282.681   285.774   284.454   283.522   289.122   297.238   299.009   297.690   294.414   290.993   293.311   295.408   299.123   304.881   308.806   310.661   314.707   322.750   339.785   355.717   365.354   375.014   382.312   389.868   399.975   410.157   416.083   422.738   438.830   457.081   468.633   477.679   485.756   497.726   508.965   522.371   535.560   545.046   548.211   551.232   555.612   556.505   551.198   539.612   528.665   537.240   534.149   528.792   541.393   541.088   527.394   518.807   510.833   504.211   498.615   487.015   494.860   502.226   491.333   470.218   458.648   471.425   482.536   468.109   475.022   487.543   481.179   496.391   511.377   513.949   513.044   513.368   518.850   520.671   513.208   523.803   522.387   516.215   530.776   518.319   497.506   489.792   495.137   500.517   506.606   503.045   507.216   484.345   467.981   453.209   443.979   448.330   458.047   448.568   455.600   456.347   471.517   488.780   493.269
72.470    67.117    65.635    62.224    68.823    84.712    95.842    90.088    86.613    79.414    66.706    67.800    76.348    82.761    80.316    72.120    64.278    64.639    68.885    69.503    65.847    60.611    59.447    59.079    59.158    59.251    61.362    67.636    76.935    76.534    74.195    72.425    74.052    73.477    72.426    75.380    78.286    77.575    80.563    89.324   109.178   124.991   123.557   110.806   101.582   106.356   101.162    92.554    84.993    79.320    76.666    74.731    75.657    74.763    75.445    76.391    77.824    79.657    82.913    88.264    91.410    97.548   104.235   112.595   116.732   124.176   137.279   158.831   179.223   190.255   190.374   191.168   186.097   188.240   189.347   190.159   189.913   186.466   178.196   164.207   179.241   195.287   197.212   196.380   196.527   195.110   189.408   176.236   183.741   180.277   180.277   187.096   195.342   205.036   214.730   227.018   243.693   255.005   259.425   262.134   262.944   264.804   276.464   292.114   316.489   330.874   320.210   308.595   302.308   288.593   305.450   324.750   325.800   322.190   336.024   348.733   349.598   334.105   320.314   318.115   318.700   339.484   351.254   348.117   371.365   387.066   387.905   382.116   382.314   370.034   373.333   386.651   375.864   353.499   344.835   362.578   368.621   355.063   341.797   338.085   343.503   328.206   324.029   331.086   348.198   362.931   373.840   356.390   338.111   318.730   308.345   307.578   315.020   311.192   299.328   283.809   271.553   271.734   269.841   252.324   239.375   244.014   240.149   261.412   270.773   263.062   259.469   253.404   244.780   241.446   246.283   248.485   236.196   220.098   217.450   215.195   212.619   210.113   210.794   215.168   219.764   228.989   232.816   233.066   230.947   229.213   228.010   229.144   231.024   233.672   237.301   241.116   246.426   250.186   257.065   261.474   266.340   270.505   278.939   283.483   288.444   291.740   293.693   294.474   296.758   301.763   308.540   311.640   310.331   305.067   304.561   308.363   311.778   321.911   324.808   323.723   321.587   329.775   341.642   355.715   365.986   372.253   378.820   386.597   394.258   403.818   415.863   433.322   449.938   461.597   467.585   480.240   496.913   512.941   523.893   536.232   550.342   556.899   562.208   569.171   569.245   556.745   538.768   545.864   552.336   546.792   541.180   543.235   537.918   529.685   520.199   513.391   507.971   503.213   496.020   478.120   479.602   477.784   463.356   452.611   466.311   477.764   464.993   478.359   480.992   475.724   488.763   498.022   499.860   500.655   504.751   512.905   512.409   504.214   512.719   501.525   498.713   510.870   524.691   506.952   492.059   479.712   487.718   498.341   498.894   500.778   501.176   491.875   467.483   452.052   438.036   442.762   439.005   445.332   455.976   476.771   488.042   487.519
70.879    64.699    59.908    58.615    72.209    83.654    79.325    70.099    72.806    72.041    61.897    61.272    67.024    69.036    67.068    67.663    61.952    59.679    63.212    64.317    58.002    58.300    59.005    58.562    58.507    59.077    59.838    64.033    69.139    67.017    66.088    65.854    67.675    67.994    69.290    73.109    77.575    85.259    88.835    97.657   113.841   127.418   128.550   123.148   117.068   107.277    98.116    94.837    96.276    92.057    79.768    74.317    72.936    73.229    74.041    75.337    77.111    78.848    81.770    91.808   103.690   115.141   125.931   133.166   137.245   141.280   149.474   167.291   183.028   190.213   183.140   180.446   172.261   177.881   178.750   178.108   177.443   172.864   161.958   149.379   167.630   179.299   180.928   175.586   176.462   177.147   172.516   164.687   169.492   180.572   191.335   202.737   211.332   220.438   228.515   233.915   237.337   240.698   248.202   258.572   260.455   271.517   289.140   305.508   322.280   322.283   311.912   295.751   288.135   281.219   302.746   313.972   314.120   316.127   337.228   351.104   343.327   328.928   316.294   306.182   328.593   349.775   340.249   348.349   367.101   380.785   376.652   370.690   367.881   357.480   357.190   378.784   369.295   345.661   333.605   352.109   358.975   343.631   329.914   328.958   333.917   322.617   311.561   333.545   351.281   364.535   373.303   355.627   339.877   331.382   315.268   301.579   298.144   294.957   287.839   289.851   293.689   291.300   268.546   248.919   257.999   260.482   246.093   265.397   281.092   273.822   267.897   256.251   249.833   236.590   239.665   241.524   227.411   218.952   216.910   214.646   212.264   210.113   211.631   215.602   219.829   228.530   232.440   235.914   235.379   234.937   233.796   232.685   230.405   232.214   236.779   241.765   244.338   246.648   248.981   251.993   257.862   263.741   269.812   272.675   275.710   277.246   280.916   285.739   288.162   293.425   300.903   312.653   319.817   313.289   312.159   314.373   316.594   327.140   334.120   341.898   341.175   338.225   342.665   351.451   367.620   375.933   381.135   384.201   387.725   398.306   413.102   422.167   437.041   449.514   470.880   490.283   506.300   517.830   527.683   537.170   550.179   561.033   571.018   577.575   579.469   564.498   551.390   561.089   564.254   556.243   552.058   551.797   534.557   523.865   519.187   511.584   503.538   497.230   490.470   482.759   471.853   465.042   454.377   443.987   458.197   465.721   460.774   476.777   466.856   471.983   478.098   484.121   487.999   493.189   501.985   513.371   502.779   498.132   504.131   489.144   489.530   502.626   521.930   502.692   492.067   479.349   474.918   479.910   478.149   482.974   494.849   497.627   482.321   465.280   445.670   431.291   430.754   447.918   458.320   469.098   476.967   481.116
63.993    58.379    55.805    60.218    74.019    79.492    67.717    60.544    61.735    63.631    57.886    55.852    57.318    57.554    56.762    58.994    59.942    56.814    59.748    59.342    54.986    55.625    56.794    57.802    57.931    58.538    58.929    59.237    59.897    59.962    63.239    67.032    68.064    68.714    74.171    88.350    95.994   102.457   108.923   114.198   129.635   137.227   138.331   126.987   117.566   106.192   100.454   111.725   112.151   100.187    87.272    76.034    71.654    71.952    72.911    74.497    76.219    77.810    81.055    87.120    95.743   115.484   129.334   140.043   151.346   161.852   168.903   179.458   184.289   182.619   175.081   165.849   157.827   163.246   166.383   164.479   162.398   157.361   147.612   137.543   156.873   164.853   162.898   157.585   156.555   159.179   159.179   166.340   177.542   192.747   206.627   221.431   234.386   245.907   255.615   260.901   263.003   263.817   269.273   276.811   280.947   279.802   291.318   304.019   319.112   313.476   299.063   290.695   272.681   278.208   299.216   297.230   303.434   322.729   339.706   346.077   333.527   320.553   307.183   301.939   334.085   350.026   331.135   342.516   356.547   370.157   366.994   356.686   350.602   341.949   350.096   362.692   358.241   340.007   322.909   337.414   343.693   332.705   321.401   321.032   317.270   309.373   311.156   337.506   355.751   367.308   372.923   357.703   340.937   329.299   314.656   302.273   304.766   311.613   311.286   309.840   303.752   289.705   260.719   265.105   284.930   269.867   255.287   270.253   270.334   265.895   266.050   261.576   253.223   234.699   228.418   229.453   219.204   216.263   214.638   213.139   211.474   210.113   212.382   216.345   220.665   227.515   232.267   236.089   239.373   242.284   241.235   240.897   239.742   238.161   236.244   238.911   240.190   243.288   250.127   254.398   254.680   260.698   264.925   266.708   267.957   271.678   276.533   279.276   282.587   287.212   296.541   303.970   308.459   310.596   317.253   319.546   322.703   327.127   333.404   341.437   353.123   349.015   358.396   350.996   357.420   364.841   371.354   379.496   386.542   398.593   408.048   417.725   437.552   454.935   473.029   491.813   507.419   517.273   524.540   533.369   542.075   556.192   569.230   580.575   589.369   583.085   568.240   576.748   575.282   569.210   566.666   559.921   544.360   523.838   512.428   506.259   505.385   505.862   499.611   493.496   492.885   487.614   467.734   443.954   446.205   450.867   459.277   464.653   457.280   468.443   470.423   472.940   482.542   493.929   509.735   518.185   499.004   493.730   499.152   483.535   491.059   504.125   519.599   501.907   491.389   478.379   470.831   466.797   466.868   477.441   482.249   486.960   493.351   479.590   457.841   437.721   426.664   431.582   447.902   452.820   463.044   472.177
56.729    53.073    54.731    63.780    73.105    70.773    59.981    54.691    55.529    55.682    52.592    50.657    50.432    50.390    51.607    54.201    56.839    54.832    55.884    54.664    51.828    52.886    54.295    55.823    57.045    57.432    57.820    58.264    58.973    60.103    69.387    76.063    76.527    74.468    75.140    84.786    98.911   112.143   122.712   128.875   137.490   141.896   141.307   130.102   117.917   119.653   125.475   125.233   115.337   104.404    91.516    75.908    70.375    70.737    72.085    73.748    76.114    78.575    84.497    92.450    99.934   109.320   115.485   129.751   145.820   162.872   171.456   170.689   171.668   171.837   166.170   157.348   145.757   147.650   150.319   147.600   144.445   140.019   130.533   123.050   140.093   146.576   146.316   139.683   151.151   161.899   176.152   186.102   190.138   207.183   224.404   240.247   254.694   267.207   276.167   282.624   288.999   292.490   292.355   295.113   297.442   296.049   295.625   303.330   308.377   305.161   289.633   270.968   264.167   270.370   283.209   289.858   308.527   328.709   337.060   333.728   324.408   311.859   295.092   301.120   331.179   342.126   321.992   332.278   345.329   357.941   359.508   341.543   331.994   323.738   338.289   348.960   346.372   332.050   310.760   322.501   327.493   324.053   311.742   308.285   305.472   298.707   317.020   341.428   357.923   370.392   371.445   360.216   339.577   321.085   312.757   312.306   315.730   308.227   299.923   296.877   290.340   272.489   264.137   281.003   292.498   275.808   269.600   272.303   252.512   243.198   245.136   250.399   239.354   228.832   221.871   219.232   218.543   217.597   215.567   213.059   210.766   210.271   213.741   217.463   222.748   230.277   234.251   238.628   243.300   248.659   253.255   253.490   253.836   251.425   242.746   238.722   244.795   248.996   248.138   262.169   264.059   260.103   261.833   264.794   267.441   270.787   274.807   279.561   284.618   290.225   292.054   299.097   304.712   311.102   316.580   322.907   330.808   338.599   345.294   346.831   357.317   360.568   373.316   378.453   366.216   366.539   367.789   374.801   383.131   391.139   406.024   419.726   437.708   454.044   468.768   487.980   503.144   511.041   514.903   518.958   528.540   541.897   558.384   572.376   590.829   595.442   591.686   594.122   586.680   579.779   573.609   563.775   550.687   530.394   518.233   518.601   523.512   521.881   513.309   511.981   513.866   503.753   485.090   452.125   435.938   436.816   450.426   450.328   450.939   462.666   465.477   475.520   481.373   491.558   509.099   505.026   487.578   492.042   482.189   482.591   496.206   510.832   510.648   500.397   494.997   483.064   474.176   465.273   458.402   467.363   468.418   474.740   485.272   488.860   467.438   442.321   427.131   420.694   431.727   445.900   458.764   469.935
49.595    49.294    55.441    64.161    67.451    58.708    52.398    50.001    50.040    49.391    48.663    48.648    48.434    48.879    49.330    50.451    53.253    52.676    52.345    50.839    49.941    51.666    53.286    54.595    55.845    56.330    57.372    60.136    70.747    77.337    83.417    90.194    88.438    82.396    78.193    78.890    90.574   106.517   120.056   129.871   138.699   144.511   141.616   132.375   129.571   138.036   143.330   137.071   118.986   107.242    92.689    75.922    69.592    69.845    71.347    73.352    75.548    77.988    82.070    91.960    99.436    97.700   103.520   116.971   135.437   149.453   156.486   153.031   157.912   159.536   155.160   148.820   137.897   130.198   133.354   130.092   126.690   124.774   117.400   115.739   119.554   126.801   133.671   151.480   163.710   174.487   184.955   198.687   208.776   222.217   237.236   253.140   268.645   279.017   291.046   295.453   301.331   305.484   310.319   317.480   317.857   311.597   303.007   301.730   297.705   291.761   282.831   267.978   259.639   276.499   290.575   302.093   318.321   326.429   328.902   328.917   318.657   303.933   287.810   299.923   323.530   331.386   310.675   320.239   336.091   349.723   351.325   336.460   321.570   312.884   319.246   325.669   327.819   318.630   304.601   307.733   317.157   314.373   305.209   299.798   297.797   296.486   319.943   342.270   355.228   366.678   371.016   362.142   345.730   333.409   325.005   316.932   305.141   295.113   287.926   281.573   272.075   269.799   278.473   294.647   298.136   288.524   287.325   276.305   263.005   249.709   235.930   229.022   227.079   226.598   230.206   231.424   230.072   221.228   217.649   215.086   212.651   210.860   213.481   216.883   220.722   228.104   232.225   236.891   241.985   246.421   252.086   259.742   263.657   261.282   255.673   244.018   259.743   265.629   258.335   258.188   273.343   272.400   270.533   267.760   272.455   277.854   280.111   280.312   284.781   290.968   295.636   299.842   306.974   314.324   320.724   326.817   329.025   341.655   358.112   358.620   363.456   374.733   382.955   389.596   386.910   387.728   384.922   377.384   382.606   389.074   406.095   417.509   432.450   447.355   463.985   480.778   493.265   500.444   500.164   505.968   518.277   534.546   551.173   569.745   591.753   602.683   610.971   607.951   600.606   592.293   581.185   562.890   547.273   542.282   538.462   537.377   535.889   533.194   525.690   523.596   512.857   505.021   489.325   462.796   440.840   429.806   434.130   446.080   460.604   455.653   472.520   481.438   484.875   489.287   503.427   498.951   479.006   485.959   476.831   484.616   495.021   503.080   506.235   494.343   490.342   494.861   485.259   469.629   458.505   451.950   456.247   468.722   481.332   481.721   462.287   438.478   419.602   417.414   434.477   445.204   454.190   461.622
47.274    49.159    56.608    63.265    59.897    51.815    47.227    47.058    46.584    46.766    46.646    46.913    47.349    47.862    48.545    49.228    50.160    50.353    49.793    49.747    49.699    50.843    52.229    53.581    54.807    57.694    62.722    77.836    83.859    89.941    92.842    96.570   100.065    96.638    92.966    88.339    87.175    95.570   104.205   115.750   132.268   140.998   146.348   144.845   141.090   146.419   151.224   144.774   125.813   111.683    93.583    76.482    69.212    69.286    70.676    72.653    74.495    76.822    79.057    84.058    87.535    92.929   102.912   117.801   130.563   136.591   142.478   137.122   142.156   145.322   145.153   142.329   134.159   118.685   118.322   118.038   113.449   108.333   115.612   123.750   137.733   147.794   153.434   161.697   171.631   178.442   185.977   199.048   215.753   229.300   242.862   261.303   275.223   283.898   286.394   287.725   293.269   299.622   306.371   312.751   310.789   300.698   292.598   287.335   285.258   281.458   272.854   259.393   258.938   283.303   300.738   313.156   318.943   317.866   323.388   325.710   318.535   301.807   284.604   295.294   310.305   310.462   303.586   309.030   322.234   336.704   343.127   335.891   325.061   310.041   300.064   306.516   311.265   309.575   296.396   296.735   308.227   306.456   300.072   286.523   282.868   299.423   319.086   338.138   345.869   355.153   366.908   365.535   353.923   337.735   318.424   303.685   292.841   286.583   279.565   278.180   278.745   285.035   295.052   300.584   299.482   288.329   278.323   272.956   268.013   256.902   239.781   229.141   230.159   235.634   244.148   248.624   243.267   230.529   219.635   216.949   214.695   212.356   212.493   215.925   219.433   223.970   227.675   231.699   236.980   239.980   245.437   252.876   261.019   270.445   267.043   256.506   275.048   279.160   272.155   261.058   278.986   288.497   286.917   278.839   280.915   292.328   297.467   293.162   288.675   297.668   298.092   301.061   310.540   318.911   324.231   330.544   338.699   342.697   359.254   367.710   367.859   377.184   389.431   395.317   397.050   397.432   396.162   391.923   388.659   392.728   401.454   414.902   428.280   440.661   452.672   466.249   478.777   481.332   487.004   506.210   524.687   543.139   559.544   577.159   595.536   610.838   612.959   611.906   607.164   600.466   588.379   571.925   564.845   561.130   553.352   550.702   550.159   542.596   533.594   521.442   505.362   496.721   485.199   465.269   439.607   428.416   429.596   447.285   455.162   448.877   472.447   483.003   488.299   492.274   499.819   495.508   474.953   474.099   483.344   493.776   504.270   508.629   501.705   491.287   481.792   491.744   485.710   472.912   459.820   451.302   447.647   458.300   465.815   474.551   458.631   429.963   413.507   410.792   426.598   434.486   445.970   452.257
47.030    51.439    57.706    58.200    51.118    44.895    44.780    44.799    44.804    44.881    45.045    45.788    46.461    47.189    47.607    48.281    48.924    49.112    49.011    49.098    49.480    50.343    51.895    53.254    54.306    59.749    68.039    74.253    73.038    75.953    84.873    88.285    94.238   101.761   105.952   103.082    98.880    97.344   109.422   125.085   136.624   144.500   154.862   156.618   154.848   150.695   142.758   134.898   121.818   107.928    94.373    75.531    68.952    68.347    69.511    70.907    72.678    74.779    79.229    86.121    92.122    99.135   108.321   121.054   121.871   119.458   125.690   121.804   129.078   134.492   136.806   135.794   129.649   116.816   107.355   103.852   101.312   110.849   124.532   137.258   152.180   161.838   170.798   176.837   183.242   189.129   198.299   208.475   219.661   231.360   246.718   265.715   275.095   274.337   275.696   278.075   282.928   289.857   296.553   299.561   297.385   290.630   279.076   275.865   275.746   273.178   262.808   248.346   257.722   282.543   295.969   309.730   310.038   312.132   317.756   322.288   313.107   297.125   281.515   283.675   297.082   297.380   299.406   313.864   326.713   340.616   344.713   337.383   328.103   311.572   297.207   292.914   295.695   293.099   284.685   293.801   300.023   298.795   290.648   276.944   284.026   300.880   317.883   329.591   335.212   346.587   361.179   359.860   350.131   334.896   323.363   315.107   312.018   306.538   295.302   294.378   297.375   300.303   301.113   299.393   294.280   282.581   265.652   251.133   249.246   243.956   234.160   234.116   234.931   240.059   260.370   263.774   258.215   241.198   227.429   218.286   215.883   213.119   212.356   214.627   218.024   221.806   228.600   233.477   236.552   237.946   245.044   255.635   264.504   274.607   271.304   270.578   285.595   292.308   280.471   270.705   284.687   301.260   301.228   292.372   287.585   292.535   305.786   309.852   305.045   304.947   317.654   309.446   312.992   320.898   324.788   329.601   336.845   344.975   357.338   369.050   377.317   382.806   392.551   399.997   404.794   405.523   408.731   407.136   391.873   399.808   402.159   407.515   417.526   426.153   437.316   448.191   459.283   467.198   483.869   503.637   521.202   542.333   560.945   581.739   598.951   610.624   608.835   610.358   609.727   602.023   588.227   580.832   573.704   567.434   561.236   554.912   548.366   541.106   533.366   522.114   502.590   487.623   475.737   458.335   442.051   428.332   428.332   432.117   437.691   453.567   475.841   484.703   490.206   493.409   496.363   488.584   470.374   471.486   490.066   503.315   511.481   517.520   504.568   491.045   479.332   484.241   492.137   479.274   474.158   460.702   446.908   445.160   450.404   467.919   466.117   437.229   416.158   404.489   415.977   429.046   439.586   443.691
45.510    50.952    51.006    48.086    44.851    44.652    44.452    44.455    44.551    44.646    44.788    45.120    46.002    46.629    47.113    47.457    47.931    48.353    48.971    49.552    50.062    51.597    53.813    55.524    55.129    57.734    59.446    60.829    59.566    62.842    72.744    74.932    77.475    85.537   100.110   110.408   110.955   107.344   111.386   130.859   145.186   154.505   162.376   161.908   145.500   133.175   126.218   122.043   112.610    96.805    90.787    74.701    68.773    67.495    68.333    69.207    70.374    75.737    83.083    91.979   100.758   109.810   118.157   121.079   104.697    99.588   108.562   107.994   117.820   124.270   128.697   129.344   123.218   113.292   100.272    98.689   104.362   118.902   131.416   143.576   154.791   163.846   174.699   184.143   193.847   203.402   212.243   219.081   227.240   234.486   250.205   264.951   270.549   259.390   260.130   264.539   268.372   279.258   291.510   291.757   287.813   281.170   269.213   261.672   266.942   262.951   252.775   238.695   259.430   279.057   294.333   304.126   296.316   300.550   312.313   319.068   306.338   289.881   278.349   274.993   286.903   299.779   316.204   334.771   345.040   354.701   351.360   335.372   323.200   311.090   300.701   295.413   281.041   276.598   274.357   280.716   286.489   284.930   277.328   272.659   286.952   299.699   312.584   316.855   319.060   333.668   354.011   351.129   342.953   327.438   317.937   320.200   329.844   318.570   307.913   305.168   303.772   297.609   292.737   291.426   289.504   285.379   280.701   263.748   243.020   235.115   236.520   242.115   241.106   239.664   254.638   270.186   267.687   251.965   235.131   218.922   216.032   213.601   212.896   215.130   217.833   221.192   227.060   235.167   243.018   245.034   245.113   254.031   267.301   278.321   276.570   273.130   289.320   300.958   292.568   278.799   292.428   310.206   312.506   306.974   302.286   295.650   310.801   321.852   321.257   316.511   329.733   319.816   314.319   320.109   326.269   331.632   336.307   344.153   357.305   370.710   380.639   390.957   398.235   404.893   412.836   416.095   419.834   417.650   401.740   411.282   419.716   420.928   420.602   424.847   441.175   451.631   460.818   471.329   481.195   499.059   524.886   547.525   562.464   581.466   598.945   606.574   604.882   601.851   604.464   601.624   581.663   568.526   561.370   556.933   552.553   545.615   533.228   528.082   525.294   518.773   509.612   496.344   486.285   472.286   453.912   429.525   428.929   423.607   444.697   467.163   476.120   477.369   483.221   485.317   481.835   472.413   463.812   474.388   494.334   510.849   516.680   520.408   510.148   493.374   480.144   476.239   486.742   492.026   488.193   473.955   458.885   438.189   446.203   463.648   467.367   443.815   418.198   399.606   401.693   418.920   424.932   425.936
44.387    44.594    44.795    44.714    44.482    44.293    44.117    44.114    44.305    44.411    44.686    44.877    45.524    46.205    46.812    47.438    48.118    48.698    49.361    49.785    51.858    54.607    56.585    58.563    58.326    57.618    57.769    58.280    58.645    59.648    61.203    64.186    68.413    73.892    88.787   105.210   117.327   119.799   119.956   133.848   144.831   150.742   157.452   159.939   146.722   127.326   110.050   105.596   102.888    96.466    82.647    71.842    68.607    67.179    66.935    67.854    69.129    74.802    84.245    94.880   104.607   112.776   116.629   115.183    99.062    91.922    98.944    97.544   105.740   111.949   116.276   116.593   113.519   106.201    98.443    98.554   105.917   119.572   132.645   143.261   151.798   161.687   172.647   184.076   195.076   204.847   213.862   224.954   235.232   242.777   252.214   260.951   263.480   252.553   246.445   245.245   257.116   273.169   294.687   293.243   274.038   273.100   264.400   250.250   255.929   248.458   238.508   240.821   262.091   276.147   291.042   297.751   282.478   296.073   305.980   312.024   299.512   285.367   271.677   280.790   296.653   313.776   331.615   343.305   352.206   355.972   352.525   339.039   327.429   315.989   315.727   309.314   292.435   281.559   271.784   267.124   267.851   268.073   268.073   272.747   279.231   290.336   300.841   304.685   306.236   319.887   344.737   344.283   335.857   324.815   310.612   309.620   318.156   313.006   303.835   294.613   286.336   281.430   280.996   278.712   275.768   276.324   277.515   267.435   244.384   237.009   244.601   252.582   245.382   239.664   251.406   266.978   269.480   256.431   237.613   220.848   217.021   217.699   214.656   215.064   217.375   219.686   224.706   229.867   243.400   252.255   250.762   258.840   268.270   277.299   281.552   276.055   287.754   299.138   297.394   297.891   308.246   318.492   321.956   324.193   322.585   314.015   325.134   334.231   334.509   333.037   340.378   330.405   320.419   320.143   328.284   337.715   343.843   346.247   360.578   371.291   382.814   393.014   399.648   405.373   411.414   422.672   429.246   428.997   419.941   423.280   435.918   436.350   437.592   433.487   439.732   458.238   468.307   477.118   487.338   502.801   525.686   545.578   561.097   577.084   594.682   602.707   603.227   589.453   594.444   594.372   585.537   568.167   551.389   540.769   533.418   524.850   518.624   517.057   515.467   505.387   503.338   500.372   490.100   477.393   454.583   425.212   412.886   421.518   445.953   463.794   466.460   470.130   475.554   474.630   468.238   457.856   464.670   483.418   500.740   510.641   508.154   514.446   510.987   491.240   479.237   472.745   473.233   483.442   490.626   486.877   470.404   444.518   437.374   453.520   461.983   440.966   414.164   399.434   390.776   405.556   410.724   408.654
43.630    43.750    43.889    43.891    43.893    43.879    43.721    43.769    43.962    44.253    44.544    44.766    45.512    46.016    46.655    47.452    48.214    48.625    49.016    49.398    51.003    52.564    53.487    58.937    62.078    63.180    62.451    62.151    59.968    59.949    64.262    67.098    69.054    75.499    89.159   106.112   121.158   128.374   131.540   136.960   138.821   136.471   135.865   148.369   143.896   128.399   105.858    90.413    90.579    92.554    84.974    70.308    68.262    66.694    65.622    67.119    68.958    72.506    80.817    92.734   105.341   108.916   109.604   107.081    95.712    82.486    83.989    86.426    94.402    98.769   100.597   101.925   100.767    98.568    95.733   100.564   113.822   124.889   133.005   140.908   150.157   160.822   171.312   183.488   193.467   205.040   216.508   231.625   242.608   251.159   252.314   251.279   253.706   246.905   228.411   231.374   254.794   271.026   291.636   288.526   268.894   266.169   259.525   242.162   236.961   228.344   229.645   249.448   262.199   274.357   286.557   287.176   276.128   285.550   295.062   305.636   295.708   282.798   268.331   280.311   296.775   308.957   324.870   341.546   338.673   335.169   342.517   339.444   333.526   329.360   325.316   312.419   295.165   283.677   273.709   262.724   263.912   269.029   281.461   291.449   296.518   297.545   296.764   300.101   312.314   322.684   337.477   338.587   321.314   313.306   304.729   297.756   296.472   295.190   289.588   281.096   272.354   267.459   265.368   262.596   260.874   262.608   264.879   256.584   239.221   245.039   260.256   264.975   248.112   242.474   254.010   257.916   257.005   250.688   235.056   219.972   219.604   220.914   217.409   214.656   216.540   218.864   223.795   228.792   237.369   248.351   257.437   257.652   266.550   274.924   280.614   283.887   287.857   285.930   284.828   296.098   304.378   302.352   305.270   315.744   326.582   332.287   331.904   336.696   343.580   346.068   349.071   343.771   334.765   325.100   335.666   340.939   348.551   355.560   362.749   373.356   383.504   394.811   400.545   404.739   407.944   416.547   430.397   441.255   441.233   442.945   451.541   453.989   455.506   452.118   447.812   463.763   472.548   479.588   487.583   501.099   517.019   536.062   552.142   569.310   588.279   597.825   601.814   586.196   575.917   576.914   572.970   565.043   549.389   528.117   513.628   510.222   499.207   498.529   500.794   486.897   485.905   487.712   477.605   463.945   450.091   424.834   407.580   415.353   434.669   452.000   455.758   463.770   468.829   462.887   458.152   450.408   470.277   490.506   499.628   499.790   496.963   510.884   509.861   495.214   495.342   480.028   468.881   470.949   474.089   479.967   472.562   451.514   427.857   437.681   450.532   440.866   418.078   400.218   388.361   389.054   395.831   392.398
42.833    42.968    43.067    43.080    43.111    43.164    43.322    43.528    43.719    44.010    44.301    44.592    45.158    45.774    46.485    47.263    47.616    48.001    48.288    48.677    49.365    49.492    49.765    53.137    56.778    59.668    65.927    71.788    70.166    70.463    77.023    77.048    80.382    83.809    88.951   103.490   122.619   134.186   140.140   139.879   127.042   121.245   120.324   131.232   135.198   126.926   107.688    88.923    76.708    79.238    74.433    68.244    65.989    64.735    64.989    66.784    68.626    72.633    81.534    93.128   104.653    93.864    93.254    93.984    89.069    78.794    77.903    79.400    83.024    87.449    89.826    89.645    90.431    92.861    95.307   102.699   122.727   132.019   136.604   145.236   159.451   165.719   175.582   188.719   199.064   209.977   220.754   235.938   250.702   260.781   247.763   236.956   234.960   233.440   218.945   231.457   252.357   266.981   279.590   280.123   261.613   259.416   261.030   247.281   232.249   220.404   229.695   247.246   254.053   268.300   280.172   279.670   266.820   273.301   291.871   299.304   290.546   279.787   264.312   276.656   294.687   316.239   335.947   340.480   326.812   317.211   323.252   334.008   324.972   326.431   327.073   312.882   296.631   282.327   265.177   259.466   272.172   286.412   296.590   306.345   312.487   314.865   315.977   321.257   331.953   338.936   345.518   339.037   321.627   312.974   313.253   310.003   299.432   291.347   278.958   276.194   282.446   277.369   263.721   256.973   252.013   248.104   247.648   241.880   243.225   259.223   271.159   265.613   250.733   252.460   259.169   249.270   246.145   240.935   229.128   219.604   220.419   222.398   220.575   216.135   216.072   217.008   223.184   229.792   235.569   244.370   257.914   262.648   263.944   264.422   265.595   276.627   277.303   270.717   279.726   295.116   289.762   291.795   302.839   312.136   323.432   324.426   320.180   327.919   337.381   345.966   352.775   353.377   339.175   333.667   336.057   348.516   359.441   366.575   370.918   379.950   386.858   396.710   402.642   407.672   414.110   421.733   431.591   441.108   448.956   452.205   456.809   461.808   465.197   464.894   459.441   475.608   490.538   496.244   504.367   514.066   524.304   532.015   546.916   565.315   580.078   588.419   597.593   578.551   560.026   553.679   555.601   554.157   546.520   525.086   506.288   493.401   484.581   479.250   481.003   472.145   463.101   468.696   470.022   455.679   440.466   421.815   407.666   407.459   426.573   444.430   441.673   453.030   454.825   448.528   445.089   446.085   456.354   472.330   479.634   482.501   494.943   511.270   518.014   508.513   505.574   494.941   473.174   461.882   458.864   460.206   458.027   448.061   431.132   419.777   424.136   422.134   414.671   402.572   387.893   380.219   378.463   376.165
42.049    42.200    42.283    42.377    42.613    42.820    43.095    43.286    43.577    43.867    44.158    44.468    44.840    45.579    46.238    46.621    47.005    47.380    47.799    48.379    48.760    49.190    49.572    50.445    55.724    59.224    61.501    68.618    79.168    90.287    92.599    91.232    92.695    94.241   101.458   107.389   124.183   142.427   150.576   140.826   119.729   108.645   104.120   113.010   124.516   121.028   108.130    92.088    77.137    68.383    66.969    65.154    63.558    63.072    65.038    66.830    68.577    72.209    82.373    94.036   101.973    91.553    82.212    81.848    79.393    74.620    74.703    75.722    76.650    77.767    79.102    80.807    85.920    90.229    98.200   107.800   117.396   127.131   136.388   145.656   157.808   167.403   174.976   185.827   197.919   210.742   226.172   238.609   246.581   242.131   238.048   228.295   214.648   216.375   206.471   220.176   244.524   258.662   264.435   270.592   255.979   247.664   254.765   251.481   235.337   216.121   216.888   231.105   247.990   262.496   269.628   271.991   258.543   269.330   282.272   283.585   279.177   269.754   261.608   284.315   303.795   320.894   336.228   328.686   314.105   303.153   314.042   328.380   327.287   314.842   315.138   310.747   301.565   283.859   262.217   259.454   277.368   295.956   304.436   312.556   319.646   327.131   332.510   337.974   343.753   347.752   350.291   346.856   336.180   330.017   337.235   329.584   313.880   302.796   287.543   291.236   302.960   302.594   291.893   278.398   271.789   263.203   255.812   248.429   251.392   269.199   274.189   263.010   252.145   259.646   257.070   242.846   236.625   233.051   224.630   219.604   221.336   223.825   221.915   219.462   218.398   217.475   220.211   227.066   233.085   238.825   252.858   255.182   251.297   251.212   253.829   272.509   266.251   265.300   280.852   290.720   284.223   299.025   307.751   312.853   315.732   313.444   315.608   319.412   328.311   331.896   344.656   360.364   351.833   352.425   348.380   346.972   359.862   370.237   376.838   383.030   391.247   399.596   406.307   410.013   415.469   423.013   432.951   441.384   444.332   447.523   453.368   458.341   465.656   473.337   473.836   483.915   500.941   513.873   520.937   527.971   538.365   544.249   553.483   571.585   574.700   573.348   581.064   569.965   552.380   533.549   530.800   529.076   529.868   518.796   503.207   482.689   468.373   459.270   465.760   462.782   445.040   452.228   460.444   453.845   434.068   415.272   405.472   400.628   417.254   428.434   425.486   430.430   429.324   430.784   439.055   452.997   458.510   463.602   472.112   477.547   489.131   504.233   517.211   510.550   501.072   489.215   476.728   471.398   457.191   445.913   441.220   436.416   426.385   416.475   410.730   404.388   399.543   394.958   389.434   389.400   385.407   377.548
41.714    41.732    41.888    42.112    42.370    42.652    42.852    43.103    43.334    43.688    44.016    44.368    44.698    45.275    45.743    46.128    46.514    46.963    47.643    48.381    49.018    49.753    50.618    51.673    57.910    64.620    69.124    69.316    82.398    99.329   101.462   102.145   102.300   104.759   110.446   114.939   128.781   145.146   148.468   132.777   113.812    99.229    89.360    99.312   109.625   112.559   102.139    86.462    74.130    65.325    61.965    60.856    61.315    63.177    65.065    66.723    68.349    70.287    76.527    89.219    99.266    91.327    77.782    69.961    70.356    71.870    73.565    74.917    76.320    77.687    78.965    81.588    86.240    93.261   108.599   116.744   122.497   133.500   144.991   153.628   158.560   174.251   183.630   190.435   197.022   211.123   230.232   238.374   239.289   233.189   218.211   216.420   207.087   203.736   192.664   210.943   231.551   245.565   251.331   257.654   254.111   234.363   243.528   241.510   232.318   214.697   209.039   229.005   248.359   254.123   260.971   261.865   249.725   261.125   269.897   270.845   265.390   257.623   270.391   283.745   302.498   320.120   331.582   319.329   304.395   292.678   310.352   322.819   324.572   316.487   303.828   294.820   292.528   285.077   265.897   256.768   276.310   295.056   302.184   308.702   318.067   328.803   339.787   341.390   337.067   336.334   334.030   333.571   340.341   343.848   345.842   331.627   322.026   307.134   299.261   300.470   313.749   322.394   309.150   297.090   290.463   279.651   274.062   265.427   266.719   272.147   275.009   262.844   260.482   263.546   255.959   249.534   238.885   231.887   224.888   219.707   221.221   224.596   224.234   221.954   220.385   219.573   218.621   224.222   229.392   235.030   241.025   241.409   240.786   249.659   262.436   268.276   258.926   261.097   280.964   281.152   275.718   288.227   299.226   301.968   305.442   314.616   322.508   330.192   332.654   341.522   350.715   362.181   369.437   370.754   368.636   357.948   364.326   373.036   381.460   391.013   395.495   401.645   406.635   410.116   412.285   419.000   427.797   434.931   438.611   444.925   445.145   448.306   457.919   468.643   478.354   494.179   507.888   521.490   535.494   542.778   550.692   559.700   565.987   571.442   565.669   558.952   564.416   560.301   545.189   526.535   510.747   510.323   513.663   509.438   500.902   482.532   465.817   454.161   448.905   449.456   443.506   433.247   443.098   444.710   430.300   408.807   402.009   396.840   405.626   408.291   410.349   420.057   433.392   441.358   443.374   457.883   475.669   485.374   495.102   495.635   492.139   497.686   509.801   513.690   506.968   496.585   475.092   465.916   462.047   456.506   458.503   455.597   440.497   432.954   433.299   424.110   408.702   408.667   410.291   409.138   406.329   398.288
41.488    41.488    41.535    41.784    42.028    42.316    42.601    42.800    43.191    43.488    43.873    44.167    44.555    44.897    45.545    46.203    47.071    47.938    48.705    48.900    49.444    52.322    56.473    56.512    57.318    64.823    73.509    78.870    87.446    95.735    99.640    97.084    91.152    92.947    95.035   103.930   126.587   139.996   134.439   117.089   102.842    89.523    82.738    86.502    93.036   100.191    93.421    78.934    67.223    60.035    59.318    59.410    61.444    63.068    63.383    64.308    65.476    66.931    68.924    83.193    89.793    85.590    73.859    68.625    70.527    72.006    74.301    76.047    77.205    78.387    79.091    81.329    87.891    96.916   115.035   127.730   135.241   144.573   156.549   165.364   171.866   182.596   193.345   205.114   219.163   227.412   233.314   229.814   227.997   222.526   212.566   203.199   200.225   185.248   183.427   203.576   218.256   222.287   229.107   247.275   251.471   231.923   227.370   230.140   217.563   208.952   200.379   219.425   236.333   240.866   255.907   248.814   233.932   249.601   256.724   257.680   254.613   262.356   281.290   294.675   309.520   323.319   322.025   313.695   300.952   283.368   304.628   314.771   315.170   305.534   304.405   292.545   273.941   270.224   261.929   256.461   273.648   291.414   301.725   311.667   319.650   329.035   333.289   324.832   319.529   311.506   306.351   308.565   324.125   341.879   351.481   350.078   341.114   325.728   323.002   325.577   332.186   341.721   327.868   318.951   303.405   301.632   288.789   283.690   280.154   281.436   275.380   267.017   265.577   257.231   253.093   251.915   245.311   233.903   227.019   221.898   221.714   225.699   226.023   224.320   222.781   222.068   218.621   222.563   226.840   230.416   233.637   237.212   245.906   260.093   264.543   258.257   254.424   260.816   277.616   268.351   278.519   288.440   294.784   303.689   313.011   320.508   324.302   329.128   332.810   340.696   349.913   359.800   367.371   360.023   359.698   372.330   370.600   371.548   382.837   386.536   387.491   390.771   397.193   403.220   406.968   414.940   421.416   425.397   429.562   433.360   433.722   439.045   455.924   466.803   478.428   498.578   512.398   525.845   536.367   544.347   551.045   556.349   561.995   566.124   557.706   541.603   543.825   539.709   528.712   513.513   497.828   492.660   501.849   498.194   482.610   478.380   472.817   462.600   446.544   428.995   431.808   423.988   426.301   429.164   423.030   405.041   393.119   390.452   401.947   418.012   426.763   437.573   450.105   462.534   454.982   456.230   474.193   495.820   510.231   510.344   504.271   511.182   513.344   520.403   503.868   488.540   481.016   479.709   478.002   476.988   475.323   465.375   448.000   454.068   457.773   436.789   424.351   424.262   431.421   426.227   425.551   414.568
41.244    41.160    41.203    41.440    41.685    41.976    42.267    42.558    42.949    43.329    43.630    44.021    44.341    44.727    45.541    46.870    48.073    49.074    50.528    51.409    51.503    52.815    59.211    61.931    59.295    63.736    73.512    80.612    81.397    78.996    80.947    80.587    74.549    77.197    89.645   107.558   122.631   118.370   109.293   100.857    88.019    80.714    75.831    76.210    80.679    87.772    85.294    71.044    60.835    58.577    57.966    59.283    60.619    60.301    60.614    61.533    62.574    64.663    67.612    73.413    80.155    75.352    67.423    68.344    70.394    72.635    74.918    77.092    78.326    79.256    79.762    86.496    93.479    98.137   111.053   131.702   142.411   149.910   170.854   180.447   180.630   185.244   196.813   215.486   229.121   231.951   225.507   217.477   214.464   211.879   206.072   190.792   190.550   172.080   175.879   191.290   201.484   209.649   230.905   237.686   240.080   230.966   213.359   217.744   208.515   194.224   192.149   211.597   220.747   239.877   241.381   230.399   223.460   230.317   239.842   250.295   263.890   275.320   286.939   299.038   313.468   321.759   315.513   306.940   289.904   272.740   293.108   301.099   306.580   292.376   284.666   282.193   271.761   252.485   250.048   263.801   281.341   297.294   307.148   313.913   319.288   318.202   314.466   310.401   304.780   293.317   283.385   298.888   319.020   339.511   334.598   348.521   357.270   347.513   346.289   348.013   350.599   350.711   346.216   339.037   326.382   320.522   307.522   304.230   301.818   296.773   285.320   275.068   263.540   250.770   240.752   241.452   237.182   231.274   226.415   221.928   224.237   227.715   228.067   226.692   225.188   222.756   219.619   220.643   224.786   228.943   235.030   243.708   252.616   253.508   252.319   251.923   251.608   257.048   263.391   266.932   284.463   293.419   299.935   304.183   307.062   309.386   315.381   321.795   330.706   341.513   342.276   350.577   356.252   344.235   350.080   358.634   355.439   371.492   382.609   377.189   379.112   383.606   386.843   396.067   403.006   409.492   412.938   413.603   412.740   417.528   426.182   442.495   462.615   475.696   488.789   501.711   514.253   523.615   530.280   539.800   544.300   549.065   555.960   559.844   548.812   530.248   519.883   515.845   506.963   497.926   482.002   475.195   488.471   484.503   466.196   462.069   460.082   456.917   452.019   431.162   418.383   416.563   411.983   416.884   412.332   401.150   388.043   394.022   418.637   437.443   446.930   454.100   466.370   474.042   473.196   464.028   470.702   493.968   514.131   521.441   518.914   527.949   529.575   522.249   503.816   499.571   497.177   496.322   492.864   490.061   473.109   462.164   467.068   470.562   469.575   446.304   441.866   438.471   448.458   443.875   442.997   428.705
40.901    40.901    40.902    41.054    41.346    41.633    41.924    42.315    42.706    42.997    43.388    43.844    44.297    44.560    45.125    47.071    48.745    49.978    53.217    56.660    58.918    58.339    57.679    64.639    65.861    67.630    72.531    73.260    70.178    65.249    67.019    66.561    66.796    79.896    97.415   106.293   109.041   100.598    90.464    85.904    78.425    71.537    69.013    67.698    70.978    78.869    74.416    62.054    59.042    57.693    57.190    58.537    58.973    59.250    58.737    59.244    60.400    63.932    67.187    68.877    68.170    64.931    66.467    68.430    70.567    73.275    75.581    77.759    79.618    83.196    87.852    96.942   103.383   105.844   108.101   121.211   138.931   150.499   166.572   186.295   190.947   189.962   197.558   214.603   223.817   221.192   211.877   204.499   200.949   201.065   198.147   182.838   172.672   161.112   163.508   177.569   196.925   216.296   228.847   223.835   231.473   230.778   207.647   202.410   199.257   180.648   189.645   207.043   223.220   232.391   221.841   211.798   227.306   241.252   251.511   263.210   274.766   281.794   285.512   295.264   308.616   316.459   311.738   299.429   279.421   264.896   271.806   284.394   290.300   277.386   262.254   264.136   258.479   242.978   254.588   274.600   288.688   301.332   309.312   312.791   309.498   303.199   298.804   294.147   289.276   281.607   269.685   287.811   309.515   325.987   319.030   339.407   358.790   360.169   355.717   347.150   340.414   343.180   335.190   334.844   335.124   324.778   321.160   314.783   312.578   309.625   299.672   281.000   269.187   254.945   243.653   233.948   229.379   227.054   224.527   223.360   226.928   230.402   229.649   228.458   226.795   223.471   220.914   219.978   224.190   228.451   235.140   246.945   248.149   244.921   246.301   246.793   248.201   253.727   260.949   271.667   278.435   278.982   281.934   292.758   304.913   316.369   324.714   331.518   334.410   334.175   330.052   341.590   344.332   328.641   336.019   340.105   359.234   373.671   376.555   365.826   372.735   377.082   378.709   386.898   393.935   397.332   398.460   399.575   409.027   422.925   434.056   439.030   454.658   468.547   481.595   495.048   507.070   515.234   522.204   533.699   534.780   538.275   548.870   550.690   537.946   522.887   506.444   491.088   484.083   480.672   466.367   462.415   476.818   478.253   457.780   444.376   446.797   439.098   451.242   440.617   423.370   409.934   404.413   405.926   401.831   392.406   384.774   395.616   422.590   438.464   454.545   464.588   472.494   480.549   484.967   485.013   476.997   487.771   510.768   528.873   534.985   536.411   528.799   518.349   506.717   502.598   495.741   484.715   477.406   474.063   469.516   472.456   475.611   478.062   474.880   456.509   455.686   451.746   460.009   457.429   453.355   441.696
40.657    40.576    40.559    40.768    40.999    41.308    41.681    42.072    42.326    43.022    43.586    44.178    44.535    44.634    44.823    46.428    48.714    51.841    55.464    59.197    62.395    63.056    60.817    64.609    72.225    72.828    70.671    66.204    63.625    59.456    59.574    59.527    65.275    79.450    93.181    97.077    90.187    84.215    78.722    73.605    68.473    64.058    63.243    62.369    65.739    70.431    62.338    59.155    58.107    56.860    56.140    57.286    57.620    58.078    57.752    58.767    60.342    63.771    66.131    67.287    64.607    64.004    65.431    67.538    70.094    73.520    76.327    79.172    89.796    99.779   104.007   109.964   116.450   119.784   121.968   129.920   140.892   155.213   170.008   191.081   192.474   196.574   200.486   210.553   213.223   210.020   201.730   195.646   186.724   181.834   188.321   177.307   155.129   146.716   158.615   183.241   201.179   214.838   217.060   208.676   222.372   229.530   208.888   187.992   180.597   175.377   192.655   206.361   218.509   216.499   204.413   205.284   218.151   229.234   245.300   254.546   262.446   268.344   277.115   288.832   305.734   312.673   308.856   295.685   275.671   259.958   257.119   265.210   268.857   259.593   248.358   243.930   237.554   249.206   271.062   287.385   294.745   302.214   306.616   305.839   298.688   288.082   280.859   268.472   266.953   270.386   258.743   275.792   296.454   310.085   306.052   326.651   343.890   341.027   344.842   341.298   322.876   324.062   325.635   317.325   321.563   313.217   301.806   298.504   294.559   294.655   291.821   281.436   270.778   260.463   250.310   238.215   230.735   226.932   224.135   225.626   228.866   235.729   234.194   230.866   228.192   223.761   220.861   221.005   224.003   227.792   232.396   236.693   238.519   238.976   240.947   243.640   247.183   252.563   259.952   263.806   265.767   268.140   280.471   298.678   309.960   320.954   326.292   326.810   326.049   321.851   325.731   335.087   327.523   319.665   333.083   349.716   366.065   370.117   363.850   356.162   365.854   368.005   370.154   375.817   382.260   385.058   386.523   400.566   416.325   429.910   439.799   448.167   458.427   469.772   481.462   493.784   497.441   502.323   512.935   524.223   522.573   528.674   536.112   534.192   525.739   513.800   497.594   479.120   466.293   466.229   455.136   450.222   464.986   470.891   453.997   434.693   428.381   424.187   435.668   437.755   428.879   413.773   402.064   395.038   391.237   381.497   384.735   396.466   417.230   432.786   446.177   458.758   469.317   477.959   482.687   490.369   492.713   500.364   512.875   528.396   541.365   537.018   520.482   507.210   496.868   486.149   480.057   477.406   478.951   478.934   476.702   479.411   485.690   486.515   477.208   469.477   470.932   469.762   468.719   462.547   456.847   449.016
40.317    40.315    40.315    40.424    40.757    41.048    41.257    41.392    42.007    43.340    44.734    44.423    44.778    45.041    45.031    46.963    51.097    54.188    56.912    60.224    64.050    67.612    67.461    69.456    73.018    72.346    67.264    59.638    59.403    58.340    57.756    58.543    61.437    69.743    80.953    85.273    74.935    69.125    67.854    64.915    59.921    58.915    59.396    59.286    59.510    59.571    59.096    58.154    57.130    56.071    55.094    55.859    56.340    56.829    56.747    58.402    60.625    63.043    64.260    64.488    62.797    62.938    64.501    66.330    68.185    70.573    76.304    83.519   100.439   109.469   119.334   126.951   136.802   141.228   143.698   148.038   154.555   167.518   186.826   182.497   182.411   187.831   194.874   203.440   203.338   197.194   196.594   190.996   178.832   167.280   175.131   171.536   150.289   137.233   156.828   179.877   194.760   207.449   207.783   197.327   212.847   223.782   211.646   189.656   171.109   171.746   181.699   192.198   203.669   200.244   190.845   199.372   207.933   226.819   247.762   261.493   272.890   282.344   289.696   300.256   311.150   303.221   306.951   293.093   277.360   263.235   251.335   244.679   244.498   239.603   230.471   234.703   249.071   263.169   279.886   292.112   298.535   303.351   302.064   295.308   280.237   269.135   263.585   255.590   254.308   256.774   248.384   264.215   285.332   296.923   298.354   320.521   337.620   329.927   330.454   339.222   322.141   305.727   312.234   303.559   300.863   297.967   284.824   279.965   276.283   274.504   271.835   265.420   264.512   261.311   251.417   238.747   230.779   227.137   225.109   227.545   235.120   240.983   237.512   233.526   229.896   223.710   221.882   223.501   225.117   228.686   231.348   233.351   235.380   237.492   239.894   244.420   246.259   248.672   256.358   263.727   268.148   269.277   281.496   298.369   310.732   321.154   322.617   320.195   316.857   315.661   324.070   328.931   317.958   321.733   340.266   354.200   358.504   354.543   347.626   346.427   354.603   355.138   359.534   367.337   373.997   376.999   386.142   399.634   415.017   429.522   440.415   451.930   465.483   475.356   484.498   482.280   482.850   493.919   508.477   512.103   510.379   517.576   524.496   520.111   515.050   506.326   490.074   473.235   456.556   452.629   448.923   440.303   452.703   459.916   453.784   436.258   418.299   409.918   425.293   431.307   427.658   415.821   403.482   386.631   380.541   377.811   390.202   402.254   416.019   431.356   438.197   445.840   457.411   467.850   473.147   485.450   495.072   504.882   516.549   525.817   540.706   533.917   522.168   506.228   501.152   496.751   483.890   491.054   494.982   481.670   483.464   497.987   499.551   496.396   481.347   479.373   479.251   477.387   473.183   467.895   457.684   445.399
40.114    40.021    39.972    40.123    40.235    40.195    40.392    40.902    42.010    43.362    44.567    47.445    50.484    47.719    47.788    50.678    54.056    56.900    59.742    63.307    66.600    70.577    74.975    77.974    76.020    69.503    63.445    59.131    57.740    56.950    56.475    58.715    62.918    73.008    82.367    80.357    70.490    60.494    59.482    59.776    58.618    57.422    57.821    57.826    58.242    58.294    58.134    57.234    56.166    55.097    54.038    54.580    55.064    55.547    55.991    57.962    59.990    60.268    63.144    61.376    60.650    61.902    64.099    66.148    67.935    70.006    75.501    84.376   101.733   116.906   129.233   141.744   151.109   154.168   157.654   166.318   171.943   182.300   190.590   175.897   162.596   169.238   183.771   194.350   188.716   181.066   191.288   186.570   174.553   161.091   157.895   160.820   146.650   127.630   146.881   162.683   179.427   195.687   203.181   189.909   199.642   213.163   207.487   189.754   164.028   162.398   173.928   181.812   185.335   181.130   184.732   196.509   203.769   217.901   233.073   253.075   271.007   285.462   298.686   310.846   306.327   291.689   302.787   300.118   288.030   274.864   258.217   241.258   227.664   218.400   229.596   246.276   256.927   267.364   283.861   294.738   306.976   308.009   299.611   284.843   275.548   257.105   245.877   244.895   234.416   236.903   239.415   252.509   265.088   274.922   293.321   314.945   332.442   323.483   317.363   327.811   329.827   303.773   291.430   288.708   286.703   279.451   265.526   260.678   257.393   256.976   253.401   249.961   253.151   253.622   245.423   236.810   230.622   227.560   227.033   230.542   241.866   242.729   238.853   235.537   232.600   224.188   223.075   224.161   226.925   229.336   231.905   234.311   236.583   238.833   244.263   250.455   251.634   254.929   264.321   272.326   279.728   283.862   285.195   299.642   315.306   328.085   317.886   303.110   305.848   319.498   323.755   320.601   308.587   321.952   340.706   346.004   343.113   332.852   334.459   338.852   339.768   352.528   369.721   381.555   390.901   386.885   388.250   398.026   407.818   421.656   438.929   453.970   465.764   475.026   478.039   468.964   473.163   494.272   502.057   497.279   499.946   508.150   512.595   508.974   508.040   502.305   486.113   473.912   457.517   436.079   432.455   430.475   438.942   438.433   445.285   443.989   427.304   401.731   407.835   418.378   422.062   413.158   399.822   382.664   376.247   375.369   389.659   405.826   420.668   440.176   447.896   457.817   465.197   468.116   477.999   490.002   498.545   508.800   519.002   524.093   532.574   532.260   525.131   519.776   509.330   504.751   496.294   502.921   501.222   486.471   488.129   501.708   510.280   502.199   494.353   495.806   490.935   482.503   475.120   466.909   457.722   447.281
40.100    39.929    39.839    39.881    39.871    39.830    39.960    40.750    42.080    43.372    44.484    48.045    50.001    48.418    50.466    53.822    57.976    62.268    64.119    68.251    71.343    75.160    81.945    88.000    79.028    72.291    67.708    62.425    59.171    56.986    55.426    57.925    63.313    75.069    79.668    74.451    67.139    58.500    57.418    58.557    57.502    56.239    56.245    56.492    56.929    56.952    56.980    56.345    55.276    54.218    53.156    53.470    53.903    54.306    55.229    56.801    58.235    59.408    60.982    59.156    60.066    62.136    64.422    66.514    68.011    68.950    71.253    80.524    94.054   110.692   125.470   139.079   147.085   149.112   156.755   171.570   180.232   189.866   186.250   170.493   154.095   159.221   175.513   181.847   174.923   170.236   182.859   175.205   162.091   158.005   148.682   138.214   137.187   118.760   132.736   148.722   173.149   187.959   196.588   186.818   186.098   201.174   198.345   184.064   154.908   150.869   160.710   165.107   162.388   175.485   196.402   211.748   220.733   230.104   248.006   262.790   275.785   288.437   301.084   310.835   300.525   281.789   295.967   302.283   297.971   284.202   265.820   248.664   227.934   216.314   236.329   251.097   258.871   269.588   284.059   295.372   304.823   300.420   288.668   271.029   272.843   260.409   243.270   222.988   220.299   242.046   254.498   255.862   260.637   269.851   284.295   305.727   324.225   327.004   305.992   314.572   325.996   312.307   293.136   278.714   272.955   269.419   259.579   259.562   259.207   253.949   249.076   240.960   240.077   240.555   237.714   233.062   229.073   227.582   229.272   241.414   245.318   244.821   241.269   238.603   234.439   227.926   223.391   225.547   228.706   230.695   232.633   234.803   237.074   238.924   244.918   256.476   263.601   265.677   265.461   267.429   271.689   287.241   297.516   306.529   316.999   318.889   305.867   297.095   308.791   319.006   316.651   307.916   307.304   320.244   328.525   328.839   324.774   325.231   329.482   338.635   348.640   367.694   383.305   395.868   401.518   401.938   402.641   409.926   421.611   428.667   441.575   452.008   462.489   469.845   468.378   457.216   464.831   484.119   489.105   478.949   484.850   499.904   502.749   499.998   501.063   497.457   486.248   475.384   460.163   441.734   422.300   423.101   429.147   421.635   425.774   428.843   421.006   403.475   393.997   404.241   408.305   406.434   394.368   375.220   370.676   371.357   382.986   402.062   414.954   429.501   441.165   460.830   472.610   481.587   487.987   494.890   503.139   506.685   507.580   510.206   518.832   519.844   524.250   519.763   511.289   512.352   510.832   509.851   499.742   497.273   495.700   503.287   510.019   507.146   504.042   501.803   489.931   478.436   471.414   464.816   456.042   446.377
40.018    39.924    39.732    39.585    39.700    39.833    40.630    44.281    43.819    44.306    43.779    44.858    47.393    49.672    54.180    58.315    61.756    66.106    69.296    72.822    77.578    80.735    87.441    91.394    84.545    75.113    72.402    70.375    62.303    58.105    54.913    55.552    58.012    63.304    67.306    64.002    59.225    55.506    55.238    57.069    56.377    55.111    54.951    55.127    55.568    55.615    55.676    55.448    54.388    53.245    52.183    52.432    52.915    53.387    54.274    55.445    56.818    58.869    59.374    59.153    61.450    63.402    64.922    65.970    66.892    67.417    68.448    76.317    85.649    97.088   111.547   119.073   124.140   136.201   150.057   162.160   172.857   183.478   177.650   161.811   148.758   147.813   159.205   163.026   156.166   158.944   172.941   162.012   149.000   146.221   142.394   120.591   122.718   113.890   130.106   148.360   169.088   180.094   186.441   181.416   171.713   181.944   181.298   167.171   147.963   143.184   146.859   151.764   166.510   180.529   198.647   218.821   233.372   249.870   262.918   280.048   291.946   302.187   310.238   308.031   299.090   276.821   285.955   299.280   295.570   278.791   263.424   249.688   227.598   209.896   230.951   250.724   257.632   270.349   282.967   294.705   299.989   289.358   273.984   258.180   263.991   256.273   241.489   219.313   218.797   245.671   263.714   276.806   284.699   291.424   294.519   300.782   319.733   331.766   303.586   301.512   311.636   311.098   304.110   291.591   280.750   273.050   269.775   261.033   256.369   251.124   245.351   239.541   238.808   233.951   230.783   229.665   228.765   229.377   241.701   248.032   249.785   248.158   247.659   244.459   239.343   229.656   225.991   225.861   229.776   231.810   233.625   235.076   236.138   237.277   241.373   256.176   266.935   273.019   274.429   279.603   285.858   294.133   300.560   305.607   311.462   307.794   296.173   301.183   312.261   311.592   303.802   298.126   306.291   311.370   312.156   312.890   319.375   326.458   333.085   345.620   359.953   377.328   389.376   400.691   406.349   413.795   417.786   422.449   423.076   425.448   435.545   446.856   455.256   460.483   456.162   440.245   452.188   467.717   471.147   463.607   468.075   479.961   484.050   491.996   494.093   491.875   483.838   468.983   462.787   450.423   429.740   412.365   416.916   416.498   412.803   417.595   422.689   411.055   389.605   387.544   394.574   396.757   384.399   367.831   365.962   368.503   378.745   392.177   405.198   415.540   430.255   449.536   463.056   473.328   480.725   486.193   491.207   489.940   488.371   491.431   503.100   507.215   518.516   513.975   510.873   510.292   507.204   506.495   503.928   497.486   488.463   493.542   502.979   504.995   500.958   490.084   481.777   466.950   459.720   457.777   451.540   443.885
40.000    39.768    39.420    39.453    39.668    39.900    45.457    44.863    43.131    42.085    42.997    46.414    49.363    52.983    57.470    63.638    67.773    71.191    77.872    79.574    84.145    88.819    92.910    91.919    83.119    73.012    65.174    62.891    60.639    58.202    55.050    52.718    53.655    53.619    54.154    54.072    54.551    52.112    52.962    55.073    55.291    54.033    53.624    53.863    54.208    54.255    54.215    54.250    53.388    52.364    51.302    51.332    51.867    52.618    53.432    54.459    55.459    56.706    57.075    59.461    61.926    62.612    63.665    64.710    65.299    66.014    68.227    74.244    84.004    90.486    96.309   103.555   119.618   136.058   145.787   151.946   166.757   176.463   167.997   152.839   141.865   137.727   144.897   146.568   138.752   148.137   160.558   154.842   135.749   127.136   134.968   121.428   110.671   108.762   127.496   145.439   160.426   165.885   169.000   169.550   157.248   163.500   160.206   149.447   138.167   140.413   156.115   172.153   183.881   194.890   204.199   212.868   228.685   245.527   264.650   284.502   296.063   303.512   301.882   294.552   287.644   272.173   287.651   294.039   283.081   270.358   257.859   243.572   224.759   207.450   221.332   244.458   255.697   266.299   279.345   290.645   287.110   275.948   262.749   248.804   253.968   240.416   223.160   209.235   216.304   232.624   249.652   264.222   278.173   293.287   303.149   315.717   327.993   332.952   315.345   292.251   288.706   285.879   277.110   271.601   265.369   260.521   258.188   258.169   260.399   261.690   259.298   251.492   250.341   238.919   231.616   230.957   230.611   241.609   249.529   254.673   257.394   258.796   255.770   250.155   244.408   237.745   230.413   226.860   227.079   229.958   231.965   233.076   234.245   236.887   239.953   251.526   262.927   268.322   277.464   281.862   284.808   289.625   297.619   303.420   306.765   296.753   290.267   303.769   309.054   298.939   290.479   295.107   298.726   300.131   302.189   311.005   325.830   334.465   343.796   354.722   367.545   375.446   381.152   385.967   392.575   403.711   415.755   414.061   412.465   423.878   432.586   440.002   448.720   454.267   446.364   426.513   440.869   452.815   455.662   447.138   450.307   461.446   470.701   482.999   488.102   485.310   475.189   461.134   451.387   448.625   437.796   414.911   403.333   407.511   405.587   406.177   415.876   413.121   392.095   375.259   374.372   375.220   367.257   362.701   366.249   369.748   387.416   395.359   396.786   407.800   419.000   436.468   447.738   456.079   464.489   464.127   467.763   470.045   475.185   483.462   491.672   508.029   513.940   505.461   499.480   508.154   499.000   493.180   491.766   485.189   479.704   482.928   487.537   498.879   499.547   487.458   475.854   468.460   455.053   446.018   439.995   430.671
39.710    39.421    39.134    39.252    39.543    39.734    39.911    39.925    40.506    40.615    43.631    48.534    53.052    57.005    62.011    69.631    75.903    77.072    85.936    88.762    89.577    99.319    94.333    89.485    81.760    73.360    66.085    59.707    56.363    56.027    55.153    52.852    50.790    49.819    49.512    49.680    50.239    49.876    51.030    53.374    54.221    52.960    52.296    52.612    52.822    52.884    52.881    52.715    52.777    51.358    50.254    50.553    52.160    53.143    53.987    54.923    55.329    55.448    56.633    59.801    60.240    60.968    62.366    63.232    63.629    65.522    67.718    70.906    81.339    86.100    89.088   105.568   122.191   133.129   127.760   139.322   159.903   169.259   159.340   144.327   132.965   128.931   133.299   131.004   127.272   140.324   147.235   144.184   129.816   115.898   126.033   116.376   106.136   107.697   124.326   141.038   150.203   152.282   153.800   158.806   146.856   146.587   140.016   131.300   132.310   144.471   167.137   180.464   192.011   205.057   216.350   225.402   235.748   247.090   262.872   278.016   284.990   285.971   280.807   277.632   272.173   272.383   294.701   283.230   271.564   261.804   251.962   238.542   223.212   206.819   209.464   233.010   252.838   261.505   274.062   278.578   272.678   264.036   253.945   237.584   231.988   220.155   210.381   206.499   228.967   240.053   243.754   249.463   260.312   272.185   285.484   303.668   321.335   332.940   313.359   294.046   281.994   281.544   280.867   277.329   274.905   272.938   272.352   273.479   272.868   271.368   265.238   250.961   243.407   235.569   232.779   235.406   239.500   248.733   259.609   262.770   265.718   265.489   262.839   260.887   253.686   244.535   235.926   229.573   227.313   227.265   229.542   231.042   232.255   235.450   238.947   247.123   255.208   259.324   267.909   263.445   268.655   286.176   293.417   302.211   302.255   285.770   287.873   300.996   299.060   283.770   286.898   290.380   291.493   302.831   308.962   319.003   332.790   344.102   358.993   361.531   360.812   364.362   368.220   378.542   392.517   404.756   411.643   401.921   412.246   420.394   429.938   439.239   444.591   447.226   432.602   413.937   429.819   442.496   445.294   435.986   434.252   445.591   464.409   475.406   479.003   476.501   465.655   452.482   438.942   438.760   439.825   421.405   398.994   392.063   395.846   393.227   406.114   408.830   394.289   373.816   362.778   360.323   357.520   362.577   370.191   387.640   394.413   406.770   403.215   400.686   412.144   423.655   431.699   445.817   451.110   446.883   449.044   459.300   483.118   490.890   501.018   509.200   497.270   489.564   498.042   510.138   506.362   498.744   485.809   478.842   470.005   466.577   475.790   483.060   485.565   480.126   473.393   470.067   459.240   451.348   442.198   424.173
39.269    38.933    38.854    38.985    39.181    39.392    39.514    39.558    39.619    39.895    46.037    53.098    56.662    61.466    69.329    77.475    86.065    86.037    91.789    98.921    99.612   103.157    91.007    81.240    73.049    70.889    68.151    64.466    60.329    52.538    53.078    51.943    50.294    49.550    49.070    48.994    49.366    49.993    50.886    52.365    53.226    51.892    50.999    51.396    51.386    51.508    51.646    51.149    51.792    50.682    49.613    51.452    53.496    54.929    55.600    56.751    57.797    56.621    56.238    57.309    57.907    60.061    61.215    61.418    62.671    64.675    67.041    69.332    79.057    87.179    94.439   106.441   118.694   122.216   112.869   136.825   154.250   161.827   151.185   136.766   126.277   118.335   123.120   118.483   117.181   127.827   130.040   127.439   117.773   106.576   113.593   109.184   101.224   101.549   120.169   133.798   137.022   132.092   137.562   144.546   134.439   127.904   122.736   133.759   145.889   161.164   176.089   185.829   197.341   208.327   217.319   226.819   236.212   246.666   255.746   261.999   265.866   268.013   268.117   265.973   264.666   284.806   288.356   274.685   265.467   256.774   247.580   233.912   218.271   204.696   202.753   224.530   247.867   257.309   269.274   270.762   261.976   251.942   242.245   228.918   207.470   206.653   197.451   212.234   240.343   259.824   268.709   269.194   276.145   284.874   283.831   299.645   323.159   334.481   314.129   308.105   307.887   304.718   300.971   296.583   290.955   281.884   275.454   270.585   264.928   267.542   261.154   246.027   236.686   237.628   239.010   240.390   244.419   250.890   261.055   269.792   275.180   272.459   273.745   274.951   269.895   260.212   244.063   234.404   229.473   228.342   228.174   228.950   230.216   233.480   237.281   242.070   248.174   253.988   256.421   258.647   269.992   276.560   290.465   301.746   298.788   280.367   279.786   285.946   277.381   279.568   282.099   286.326   297.695   311.835   317.778   327.241   341.521   351.591   352.007   343.006   348.876   358.862   373.208   377.742   381.341   392.987   397.533   394.328   409.597   416.259   427.083   433.969   427.583   422.304   409.419   399.703   417.141   429.631   432.170   423.245   420.398   438.715   452.690   459.417   466.862   464.829   452.880   442.767   430.588   418.406   428.829   427.682   408.845   390.149   380.943   383.942   388.810   397.943   388.083   369.045   358.183   353.143   356.993   365.492   387.568   405.929   409.752   407.688   420.983   401.728   405.973   420.461   429.293   437.195   435.079   438.795   452.758   474.381   485.481   495.996   504.343   498.119   486.553   490.624   496.711   504.292   512.647   499.663   502.137   495.447   482.787   464.030   456.805   460.023   460.908   463.411   463.143   460.165   454.189   443.815   439.559   430.905
38.925    38.635    38.611    38.712    38.858    39.057    39.127    39.228    39.607    40.555    49.666    57.613    63.013    69.486    76.922    86.364    95.245    97.566    99.738   109.414   109.967   102.999    89.725    78.813    68.205    61.170    59.769    59.803    58.482    50.301    50.353    49.980    49.537    49.179    48.725    48.705    49.268    49.856    51.039    52.206    52.047    51.191    49.858    49.970    50.025    50.129    50.369    49.802    50.384    49.523    50.158    52.246    54.375    56.662    57.236    60.616    72.510    65.787    58.933    58.335    57.874    58.017    59.586    59.994    61.625    63.659    65.906    68.342    73.920    87.523    99.545   107.869   115.352   109.500   103.294   127.336   145.171   154.774   146.839   127.835   117.933   109.613   112.608   107.548   104.797   112.534   111.572   107.750   104.216    99.455   100.808   102.617    97.518    97.266   111.824   119.145   117.972   116.010   119.894   122.322   116.670   114.422   126.543   145.673   163.800   172.453   178.446   184.890   194.231   206.103   214.466   220.121   225.588   229.031   234.392   242.592   250.890   254.568   256.092   258.405   274.414   292.756   279.865   264.100   255.463   246.593   237.415   226.816   215.031   203.019   197.554   217.671   240.839   252.988   259.869   262.032   251.652   239.425   229.166   217.787   203.215   187.901   194.013   217.513   246.841   266.415   280.887   288.025   291.722   301.630   302.827   299.019   322.351   340.041   326.281   312.095   311.930   317.772   312.306   309.229   294.602   271.293   263.713   262.596   254.983   256.586   256.856   244.100   239.502   241.883   244.852   248.110   251.977   258.547   265.864   273.930   284.061   286.584   290.420   291.800   285.628   273.305   256.826   240.907   233.978   230.545   229.701   229.855   230.047   231.173   234.655   237.528   241.843   246.895   248.334   258.982   265.707   278.642   292.102   300.481   292.242   271.499   267.910   269.005   269.772   275.889   285.429   300.026   314.137   320.283   325.221   329.362   337.157   337.993   332.065   336.135   351.215   357.327   355.750   355.583   361.405   368.897   377.076   387.844   404.393   414.330   423.552   423.964   411.310   401.713   388.433   396.130   405.735   412.106   419.463   415.027   412.868   426.052   428.332   437.587   450.898   453.739   438.937   423.064   420.389   407.855   408.191   416.426   413.602   397.348   379.882   375.516   376.349   376.792   373.757   361.502   354.484   349.081   356.973   366.628   384.800   406.748   418.748   418.164   424.927   423.937   416.790   418.213   421.075   429.355   435.936   449.824   465.931   479.846   492.895   501.289   493.725   481.547   490.824   504.691   509.434   508.300   518.163   508.264   510.181   498.360   482.010   463.911   446.131   444.043   445.354   446.479   445.734   445.063   444.208   434.072   430.903   427.850
38.781    38.491    38.368    38.468    38.569    38.695    38.927    39.317    39.707    42.983    52.267    62.827    73.046    78.628    83.091    92.878   100.385   103.000   105.336   106.883   106.670   101.531    91.384    79.340    68.740    59.956    53.691    51.108    49.369    48.840    49.257    49.389    49.000    48.611    48.222    48.577    49.158    49.742    50.890    51.355    50.788    50.070    49.445    48.714    48.830    49.020    49.078    48.826    48.993    48.490    50.991    53.125    55.491    58.322    59.198    71.069    90.342   103.126    89.922    65.117    59.866    57.968    58.638    59.520    60.788    62.690    64.774    67.048    69.043    77.254    93.623   104.886   110.108   100.668    97.964   119.718   135.349   148.083   137.893   121.851   110.740   106.419    96.997   100.584    93.137    98.568    95.244    91.947    91.717    90.960    90.860    91.773    93.039    93.369    99.407   101.912   101.319   100.668   100.352   103.283   106.274   108.776   126.581   145.229   162.727   169.629   175.714   183.312   188.370   197.890   207.274   210.563   212.051   213.847   217.847   223.926   234.157   244.510   261.574   275.738   288.704   289.777   266.910   252.219   237.675   228.721   224.621   218.203   212.569   192.324   188.499   209.047   228.979   247.004   253.162   252.695   239.550   226.691   214.983   206.253   194.627   180.490   199.184   218.742   247.037   261.073   271.878   280.130   289.008   298.274   309.584   315.124   326.800   335.308   325.337   308.419   304.002   309.165   305.109   294.993   280.880   265.113   258.549   251.931   251.361   248.015   245.292   239.512   242.157   244.480   246.739   251.369   258.839   263.552   274.229   281.231   293.190   300.146   305.783   307.759   298.185   285.518   269.494   249.553   238.911   235.355   233.730   231.662   231.722   231.428   231.619   234.767   239.398   243.794   248.526   256.539   268.470   279.886   286.847   291.374   280.860   267.808   265.215   268.228   271.834   281.375   293.640   302.863   311.467   314.910   315.058   317.500   321.281   321.458   331.237   346.788   347.203   338.658   345.383   354.630   361.494   375.149   386.858   397.994   406.813   415.035   422.811   429.416   408.835   383.834   372.629   387.151   388.890   399.295   409.169   403.740   400.479   405.413   410.017   424.800   435.264   439.629   427.917   411.273   408.831   402.275   393.147   394.353   395.382   393.620   381.404   371.951   367.131   366.206   363.037   355.644   350.026   347.217   358.245   374.098   387.001   397.199   413.973   429.034   435.176   442.419   441.232   444.197   438.699   448.310   449.182   465.209   479.863   488.075   487.824   489.549   481.983   480.345   494.206   506.082   514.620   523.969   530.590   513.364   498.612   488.760   477.860   462.330   447.721   433.984   425.849   425.372   425.966   425.997   429.399   421.978   419.280   422.256
38.637    38.347    38.124    38.225    38.325    38.565    38.955    39.396    39.783    44.770    52.981    63.436    73.483    81.101    86.384    91.713    95.575    97.185    98.125   101.041   100.303    95.390    87.116    77.280    68.227    58.973    50.226    48.877    47.977    48.192    48.778    48.801    48.438    48.059    47.874    48.435    48.971    49.551    49.925    50.141    49.998    49.187    48.555    47.983    47.824    47.804    47.897    47.710    47.898    49.604    51.874    53.999    56.860    60.137    71.364    79.827    96.562   108.138   106.560    85.611    69.545    60.805    58.522    58.824    59.977    62.043    64.514    67.104    69.733    74.846    83.235    93.528    99.129    92.631    91.766   109.930   123.352   128.086   125.315   114.719   104.114   100.800    89.693    88.851    85.866    85.233    84.887    84.539    83.399    83.919    84.484    85.204    86.930    87.629    88.329    89.115    90.965    91.474    92.611    96.692    99.785   104.681   121.676   137.698   148.822   159.379   171.245   178.954   178.666   178.412   184.840   190.809   194.870   202.290   210.560   231.979   245.782   261.649   278.095   285.580   290.378   279.954   259.515   240.002   222.573   210.941   208.452   207.395   188.941   183.062   181.817   204.316   218.380   231.607   238.680   238.688   226.729   215.648   205.907   192.928   174.932   183.231   200.348   217.180   233.669   249.809   252.575   255.823   265.315   280.222   298.040   314.016   328.338   325.028   314.524   299.031   297.827   298.635   302.351   294.104   273.589   270.383   267.919   265.766   273.922   268.044   257.445   242.883   244.429   247.868   248.831   252.081   262.949   271.962   278.690   292.435   304.787   317.012   328.671   321.502   305.321   293.767   276.026   255.926   244.109   241.300   237.975   235.422   233.352   232.852   232.302   233.156   237.817   240.749   243.937   253.292   264.058   267.604   276.963   279.626   269.488   264.222   265.917   265.803   270.637   277.875   282.024   287.330   292.595   297.596   300.180   303.885   311.116   324.907   340.419   337.532   333.258   343.386   354.769   367.194   375.902   382.601   387.448   399.459   409.451   414.932   419.951   423.915   413.675   387.073   366.844   369.779   380.175   399.037   404.973   395.882   386.218   395.163   405.040   417.175   423.947   425.356   418.040   403.193   395.389   397.264   383.789   378.408   378.378   377.343   374.404   365.881   359.668   358.792   355.508   349.218   344.162   347.859   355.574   380.501   398.354   406.545   418.662   429.954   441.877   453.958   460.648   461.436   456.051   470.897   472.933   474.367   488.720   487.028   480.686   476.704   477.042   490.136   498.101   509.511   518.082   521.436   525.042   522.954   510.491   498.389   493.284   480.483   466.507   452.117   436.917   422.201   408.991   406.295   413.344   406.018   404.154   406.191
38.459    38.203    37.913    37.939    38.248    38.638    39.028    39.422    40.049    45.671    53.260    61.858    69.948    76.828    81.398    85.177    88.437    90.340    90.823    91.166    89.572    80.780    75.397    70.883    64.611    54.601    48.900    47.654    46.953    47.804    48.291    48.313    47.924    47.570    47.711    48.292    48.774    49.355    49.277    49.116    49.022    48.347    47.667    47.252    46.871    46.779    46.737    47.626    49.156    51.283    53.720    55.724    57.452    59.720    71.113    85.350    97.191   110.365   109.556    97.623    77.336    65.819    60.567    59.325    60.373    62.795    64.856    66.540    68.236    70.060    74.835    80.402    86.296    83.960    83.448    96.369   108.741   112.860   110.349   103.209    93.503    88.358    82.351    82.431    80.977    79.669    79.881    82.099    86.206    88.866    89.687    91.053    91.515    91.388    91.808    91.379    94.763    99.665   101.319   103.633   107.559   109.146   110.857   123.091   132.416   142.543   151.954   156.779   157.885   160.633   169.420   182.174   190.649   207.038   218.474   228.675   244.247   262.371   275.525   281.990   284.718   274.978   256.676   237.731   219.598   205.912   191.336   183.311   177.853   171.987   181.993   196.856   207.923   216.751   227.357   223.532   212.673   204.942   195.990   177.582   170.635   183.679   191.133   200.405   209.940   227.163   247.045   268.725   285.095   291.924   298.639   318.994   326.264   321.512   306.041   292.230   286.436   286.032   293.479   291.417   279.601   282.681   274.325   280.982   279.369   272.966   258.203   245.221   247.295   257.513   265.013   257.467   261.329   272.450   285.621   299.613   309.224   324.359   328.557   311.413   294.553   287.582   274.054   256.984   249.950   243.932   238.825   235.904   235.241   234.419   233.357   233.217   234.978   237.094   237.966   242.711   251.183   254.767   263.523   266.956   263.349   261.379   267.508   274.455   280.906   290.106   297.104   299.353   298.639   304.655   312.007   313.958   324.215   337.061   338.797   325.241   340.437   352.976   363.433   373.353   383.063   391.615   396.655   402.792   410.482   416.479   414.012   411.408   406.052   384.503   362.916   361.388   380.672   395.897   401.044   388.078   374.632   392.797   401.419   409.436   414.621   414.387   411.475   402.740   379.955   383.299   380.510   371.983   363.632   360.368   359.500   357.885   356.595   355.033   351.585   340.543   343.111   351.786   366.366   384.510   388.910   399.542   410.536   418.791   429.184   443.020   456.815   471.779   475.878   483.240   490.147   490.579   480.825   469.593   466.820   470.339   478.801   484.822   489.493   497.711   504.708   507.527   520.861   531.420   522.820   510.447   497.621   478.592   455.070   442.028   431.882   417.866   406.813   396.590   392.897   389.157   386.889   387.051
38.072    37.959    37.732    37.890    38.674    39.081    39.150    39.658    42.236    47.642    53.454    60.262    66.976    72.083    75.334    77.899    80.414    81.929    82.226    81.648    78.121    70.407    66.577    63.369    55.998    48.137    46.448    45.827    46.652    47.319    47.801    47.734    47.437    47.148    47.570    48.093    48.632    49.175    48.679    48.242    48.147    47.417    46.831    46.284    45.996    46.015    47.734    49.567    50.929    52.786    55.596    58.508    60.300    63.268    67.345    75.494    86.685    96.668    94.920    87.396    74.530    67.075    62.996    59.928    60.646    62.564    64.210    65.840    67.483    68.743    69.759    73.621    76.394    76.299    78.510    83.905    91.140    93.152    90.523    84.514    79.813    79.544    79.360    79.136    79.135    79.955    83.023    86.572    93.942    99.966   102.674   103.411   101.876   101.846   100.557    97.322   102.210   119.948   118.080   118.966   128.682   129.206   124.997   118.754   118.754   125.105   131.849   136.774   145.039   164.268   181.201   195.901   206.275   215.016   224.483   235.675   249.091   262.765   270.768   272.428   279.728   269.978   255.840   235.085   218.185   206.912   194.509   180.199   167.318   164.509   180.512   196.220   206.354   214.260   219.636   207.368   194.302   185.505   175.623   166.903   169.271   180.543   190.535   209.753   230.299   247.693   263.425   278.479   297.821   309.340   316.654   326.305   330.946   330.472   316.994   301.334   289.261   278.108   284.556   291.237   290.572   285.483   283.527   274.672   266.482   259.049   250.258   246.515   259.890   274.784   280.789   265.424   259.868   268.834   282.694   295.292   307.568   325.089   324.147   305.831   288.958   277.516   268.395   262.477   256.000   246.667   238.784   237.762   237.113   236.781   237.782   236.050   236.801   237.161   237.826   238.996   245.180   247.970   252.559   255.875   258.000   266.878   277.019   284.514   291.557   300.106   307.245   315.265   320.129   322.079   325.978   325.683   332.942   338.470   327.477   324.086   340.157   351.274   360.019   364.686   369.481   384.571   399.279   405.086   410.934   414.749   407.412   391.778   389.780   373.070   355.442   357.287   376.500   390.520   387.799   374.203   367.218   384.995   389.910   394.221   403.141   403.513   394.267   390.398   372.211   370.382   371.620   366.839   358.768   353.262   353.704   353.698   353.496   352.124   349.394   338.026   343.940   355.206   376.624   393.290   404.391   414.157   423.182   433.138   437.742   451.761   463.048   467.195   465.915   475.792   486.977   473.981   458.926   460.351   470.336   485.745   490.359   488.557   491.143   489.493   495.054   507.533   521.487   519.841   508.658   502.860   478.325   453.788   437.485   434.718   432.339   430.453   426.905   412.910   397.868   386.626   373.572   374.835
37.603    37.586    37.523    39.890    40.356    40.127    39.854    41.632    45.822    51.149    57.524    61.255    65.545    68.708    69.149    71.115    72.977    73.695    71.990    68.920    67.463    64.084    60.475    55.302    48.382    44.924    44.659    45.303    46.252    46.833    47.304    47.238    46.949    46.851    47.414    47.909    48.490    48.849    48.082    47.345    47.254    46.678    46.018    45.420    45.318    47.331    49.648    51.490    52.700    54.347    57.338    60.722    65.162    68.223    72.613    81.014    91.534    93.584    85.235    77.202    71.665    69.333    66.874    62.165    60.380    61.927    63.556    65.114    66.699    67.694    68.662    69.535    71.092    73.894    76.386    77.723    78.509    79.224    79.300    78.989    78.706    78.570    78.434    78.625    79.634    82.997    86.750    92.522   107.596   116.916   119.375   119.242   117.679   116.127   113.876   104.953   109.184   127.249   132.113   126.978   135.943   142.989   144.449   137.178   130.015   133.060   138.212   135.460   141.730   159.958   175.310   187.058   206.676   222.433   236.572   248.216   258.149   260.333   254.401   263.422   277.064   266.775   254.075   240.941   229.055   221.391   203.832   181.454   163.455   157.830   174.548   190.219   202.702   211.254   209.710   197.314   180.478   166.453   162.356   162.746   171.506   197.594   199.344   201.843   222.520   242.249   256.865   274.565   288.521   303.631   321.929   331.205   331.232   328.316   313.005   302.172   292.482   279.861   275.527   279.810   280.213   274.879   279.953   260.677   252.838   250.292   250.117   259.244   272.635   284.025   288.248   267.065   273.567   273.777   279.155   290.055   308.738   323.881   319.053   303.377   289.787   290.417   285.272   276.311   262.148   250.741   239.649   240.250   240.630   239.931   242.469   241.910   241.421   240.659   241.148   237.826   241.775   244.646   247.659   250.881   256.887   263.380   270.997   276.410   281.214   288.583   297.864   308.016   318.655   324.980   330.649   332.797   333.026   326.945   311.444   323.329   337.120   342.525   344.570   349.718   363.685   384.813   392.290   395.928   402.977   411.994   407.651   381.469   369.327   364.427   348.954   353.052   370.830   380.413   374.632   362.810   363.903   375.290   376.379   377.645   390.973   388.135   377.523   376.333   365.133   356.598   356.232   359.707   353.560   346.552   345.104   347.376   348.465   345.032   338.026   338.408   347.884   357.520   372.659   392.055   405.863   417.689   431.623   446.183   452.119   460.085   460.575   451.901   463.594   476.645   473.307   456.604   454.729   470.530   478.830   491.443   501.374   500.402   501.882   492.962   502.517   513.099   522.090   516.248   498.434   485.700   468.901   453.380   457.351   456.717   451.708   455.597   444.016   430.844   414.178   397.857   380.547   363.901
