ncols  298
nrows  32
xllcorner       9480
yllcorner     -10020
cellsize     10.000
NODATA_value  -999.000
704.465   709.373   713.990   718.572   722.016   725.474   729.072   730.235   730.744   730.771   730.296   724.718   717.090   709.061   701.176   693.205   685.601   677.558   668.989   661.026   653.741   646.256   639.034   636.386   639.084   644.095   649.573   655.057   660.557   667.036   674.061   682.363   691.275   697.221   703.758   710.221   717.378   726.047   733.318   737.994   739.529   737.893   734.024   728.478   721.833   715.233   709.516   704.516   699.564   694.492   688.467   680.681   674.934   670.351   663.101   657.147   653.155   650.833   651.271   652.422   653.510   651.827   647.645   644.127   640.696   639.530   639.851   643.318   651.609   659.777   658.603   650.499   643.230   639.233   639.206   640.395   644.596   653.680   664.796   674.199   680.514   682.650   684.823   686.992   688.367   688.990   687.501   683.051   675.489   664.907   653.979   648.654   648.942   657.245   664.418   668.915   674.602   681.723   687.373   689.186   688.639   687.391   685.999   684.609   683.274   681.975   680.538   678.466   675.848   676.919   679.237   680.588   681.307   681.581   681.812   681.815   681.272   680.445   677.621   673.458   668.234   661.783   658.617   661.086   665.754   668.496   669.402   671.079   673.016   674.337   673.997   672.001   669.633   665.176   660.323   655.153   650.902   649.033   647.987   647.934   648.826   650.782   653.192   656.272   659.851   663.598   667.263   669.986   671.740   673.137   674.520   675.716   675.414   673.381   671.751   671.082   671.087   671.492   672.247   672.527   671.263   669.711   665.870   662.245   659.341   657.117   658.227   660.090   661.699   663.190   664.309   664.424   663.847   663.004   661.896   660.714   659.147   656.928   654.419   652.967   653.799   655.384   656.438   657.442   657.877   657.606   657.242   656.756   655.801   654.484   653.102   651.783   650.438   647.835   644.364   640.606   633.936   630.287   631.449   633.725   636.077   636.795   636.490   634.600   631.721   631.284   634.047   637.007   636.470   639.318   639.805   635.459   628.879   625.683   627.823   631.813   637.977   641.386   640.017   633.346   628.589   625.202   622.284   623.743   626.984   630.408   633.810   637.154   639.851   641.633   643.163   644.923   646.576   647.592   648.185   648.941   649.269   649.063   648.423   647.815   647.173   646.635   647.238   647.741   647.857   647.931   648.025   648.003   647.824   647.481   647.546   648.081   648.755   649.342   650.034   651.115   652.462   653.578   653.468   652.042   650.295   647.134   642.729   640.246   639.759   640.245   641.774   644.615   647.759   650.085   651.413   652.552   652.943   652.553   652.762   654.861   656.627   657.516   657.708   657.574   657.513   657.829   658.580   659.602   660.811   662.270   664.107   666.332   668.731   671.477   674.452   677.570   679.769   680.875   681.503   681.230   680.725   680.443
703.484   708.155   712.735   717.244   721.416   724.790   728.309   730.121   730.948   731.015   730.390   724.975   717.888   710.361   702.555   694.521   686.639   678.522   669.990   661.492   653.461   646.125   639.846   637.336   640.188   645.869   651.980   658.119   664.541   671.060   676.907   684.889   693.186   698.987   705.919   712.710   719.092   728.121   735.912   740.175   740.884   738.573   734.251   728.406   721.563   714.929   709.340   704.554   699.800   694.808   689.096   681.893   677.756   673.785   668.630   662.467   658.328   657.230   657.704   658.256   658.333   656.875   653.827   650.181   645.159   640.898   639.569   640.903   647.099   657.867   660.639   654.937   648.013   641.296   639.345   639.501   641.401   648.317   659.228   669.949   678.524   682.081   684.291   686.425   688.349   689.555   688.581   683.293   675.150   664.256   652.790   648.422   649.402   658.376   666.741   672.101   678.283   685.448   689.854   689.897   688.533   687.109   685.704   684.285   682.950   681.648   680.190   678.095   676.659   678.663   680.592   681.653   682.647   682.992   682.625   682.042   681.004   679.081   675.368   670.967   666.052   661.021   660.733   665.137   669.571   671.692   672.252   673.394   674.893   675.558   673.887   671.218   667.700   662.209   657.261   652.210   649.421   648.804   648.625   649.661   650.907   653.135   655.543   658.285   661.746   665.560   669.251   672.003   673.774   675.141   676.468   677.021   676.018   674.267   673.060   672.739   672.625   672.723   673.141   672.618   671.261   669.665   665.537   661.607   659.014   657.906   659.417   661.198   662.782   664.323   665.163   664.714   663.683   662.456   661.184   659.730   657.805   655.499   653.836   654.006   655.632   657.331   658.499   659.179   659.274   658.917   658.422   657.749   656.450   655.104   653.710   652.269   650.782   647.684   644.081   640.232   633.371   630.158   632.457   636.605   640.630   642.347   641.858   639.701   637.012   636.393   638.701   640.905   639.876   641.930   642.070   638.627   631.913   627.058   626.314   630.151   636.931   641.506   640.242   634.240   629.247   625.828   622.965   623.786   626.417   629.176   632.036   635.500   638.989   641.385   643.097   644.970   646.826   648.231   648.911   649.380   649.672   649.575   649.042   648.414   647.793   647.200   647.725   648.355   648.629   648.740   648.744   648.529   648.248   647.927   647.934   648.326   648.839   649.332   649.914   651.039   652.564   653.817   653.779   652.262   650.554   648.035   644.493   641.722   640.003   639.865   640.575   643.429   647.298   650.393   651.968   653.214   654.124   654.578   655.080   656.434   657.541   658.399   658.943   659.116   659.285   659.843   660.869   662.155   663.533   665.025   666.792   669.136   671.963   674.939   677.726   679.685   680.928   681.585   682.247   682.460   682.523   682.677
701.915   706.393   710.888   715.253   719.927   723.480   726.974   729.812   730.904   731.206   730.460   724.986   717.985   711.241   703.626   695.429   687.298   679.082   670.588   661.670   652.824   645.167   639.735   638.562   642.734   649.663   656.121   662.301   669.080   674.921   680.783   688.698   696.013   701.492   708.190   714.332   720.900   730.208   738.148   741.768   741.539   738.449   733.672   727.866   721.225   714.743   709.443   704.974   700.393   695.409   690.058   684.618   681.646   677.707   672.825   668.307   664.073   663.119   663.225   663.364   662.562   661.313   659.385   656.386   651.884   644.011   640.002   639.707   643.944   653.798   660.421   658.388   652.026   644.642   639.591   639.451   640.554   645.337   655.639   666.078   675.519   681.672   683.860   685.962   687.991   689.899   689.587   683.516   675.100   664.317   652.743   648.773   650.156   658.973   668.139   674.893   682.077   688.441   690.834   689.832   688.237   686.823   685.533   684.253   682.832   681.333   679.846   677.856   678.078   680.310   681.558   682.783   683.878   683.873   682.692   681.445   679.889   676.654   672.553   668.188   664.087   661.761   664.426   669.321   672.342   673.972   675.028   675.967   676.773   676.025   673.266   670.169   664.815   659.041   654.673   650.435   649.410   649.520   650.250   651.669   653.395   655.679   658.083   660.706   664.106   667.750   671.021   673.727   675.774   677.195   678.236   678.162   676.706   675.284   674.563   674.380   674.203   673.999   673.679   672.538   671.212   669.664   665.431   661.197   658.951   659.061   660.571   662.447   664.193   665.640   665.609   664.274   662.802   661.508   660.156   658.400   656.310   654.537   654.348   655.863   657.566   659.062   660.141   660.555   660.537   660.044   659.414   658.538   657.067   655.631   654.195   652.632   651.029   647.235   642.903   637.855   631.985   630.362   634.116   639.244   643.628   646.191   646.554   645.136   643.081   641.940   642.739   644.095   643.713   644.581   643.654   640.674   634.940   628.920   626.167   628.813   635.321   641.241   641.010   636.040   630.666   627.090   624.317   623.649   624.992   627.076   629.410   632.612   636.808   640.436   642.807   644.798   646.776   648.585   649.726   649.986   650.184   650.119   649.736   649.163   648.550   647.938   648.178   648.848   649.347   649.447   649.310   648.991   648.719   648.492   648.475   648.708   649.045   649.409   649.957   651.099   652.651   654.069   654.193   652.596   650.911   648.834   646.040   643.280   640.837   639.841   640.026   642.038   646.407   650.205   651.856   653.219   654.461   655.445   656.308   657.169   658.020   658.880   659.795   660.911   661.633   662.355   663.561   664.966   666.413   667.977   669.952   672.577   675.631   678.224   680.080   681.061   681.787   682.126   682.440   682.642   682.850   683.490
699.931   703.702   708.135   712.660   717.646   722.130   725.820   729.525   731.081   731.450   730.581   725.015   717.992   711.353   703.746   695.751   687.532   679.413   671.246   662.089   652.602   644.302   639.776   642.136   648.620   655.159   661.489   667.230   673.281   679.029   686.135   694.596   700.949   705.705   710.867   716.562   723.653   732.698   739.639   742.686   741.792   738.132   732.787   726.822   720.803   715.044   710.373   706.498   702.232   697.616   692.700   688.896   685.051   680.298   675.466   672.099   668.695   667.346   667.140   667.035   666.068   664.259   662.721   660.816   656.279   648.464   641.719   639.722   642.823   651.597   662.054   663.099   655.358   646.701   639.697   639.565   640.468   645.036   655.267   664.703   672.945   681.342   683.500   685.854   688.217   690.073   689.990   683.748   674.878   664.509   653.122   649.232   651.084   659.493   668.483   676.456   684.992   690.668   691.418   689.741   687.878   686.615   685.849   685.023   683.349   681.316   679.741   678.227   679.858   681.328   682.869   684.311   685.101   683.613   682.194   680.729   677.835   673.894   669.708   665.557   662.510   664.276   668.865   672.099   674.113   676.088   677.633   678.516   678.174   675.391   672.485   668.744   661.739   657.012   653.709   650.476   650.190   651.159   652.441   654.216   656.051   658.288   660.677   663.086   666.006   669.384   672.428   675.278   677.780   679.261   679.580   678.829   677.391   676.352   676.100   675.923   675.692   675.021   673.498   672.238   671.029   669.548   665.369   661.181   659.304   659.954   661.818   663.902   665.994   666.930   665.598   663.586   661.803   660.343   658.714   656.935   655.138   654.689   656.145   657.942   659.496   660.470   660.967   661.465   661.556   660.892   660.189   659.197   657.667   656.044   654.362   652.669   651.062   647.071   641.160   633.358   630.107   631.807   637.844   642.924   646.606   649.347   650.277   649.346   647.239   645.110   645.010   647.059   647.761   647.335   644.755   641.515   636.653   631.172   627.811   627.719   633.483   640.651   642.178   638.191   632.736   628.873   626.266   624.240   623.931   625.198   627.174   629.550   633.337   638.260   641.996   644.209   646.357   648.510   650.210   650.584   650.794   650.777   650.468   650.104   649.501   648.966   648.709   649.209   649.891   650.091   649.845   649.512   649.303   649.188   649.162   649.281   649.507   649.745   650.369   651.551   652.988   654.438   654.647   653.030   651.388   649.502   647.089   644.576   642.205   640.216   639.895   640.984   646.281   650.155   651.528   652.835   654.143   655.239   656.235   657.127   658.049   658.938   660.053   662.296   664.135   665.267   666.473   667.851   669.393   671.198   673.689   676.568   679.052   680.585   681.204   681.679   682.169   682.071   681.813   681.576   681.579   682.517
703.841   705.993   708.560   711.135   715.913   721.026   725.323   729.460   731.217   731.677   730.643   724.403   717.568   711.281   703.806   695.758   687.512   679.509   671.721   662.666   652.659   645.214   643.533   647.336   654.082   661.294   666.784   671.657   676.896   684.001   692.197   700.440   705.142   709.548   714.589   720.070   726.938   736.339   740.718   742.030   741.035   736.734   731.121   725.907   720.672   715.776   711.609   707.456   703.346   699.166   695.038   691.053   686.802   682.415   678.722   676.233   673.945   671.425   671.275   670.290   669.023   666.777   664.061   661.443   657.122   651.271   643.080   639.754   643.325   652.693   663.104   664.251   654.880   644.613   639.700   639.727   641.338   647.626   656.766   664.847   672.475   683.687   686.678   687.393   688.428   690.458   689.100   682.563   674.329   664.742   655.929   650.733   651.113   659.440   668.793   677.423   686.074   691.516   691.960   690.017   688.913   688.612   688.099   687.177   685.280   682.586   679.821   679.369   681.096   682.949   684.490   685.856   684.881   683.209   681.521   679.487   675.237   670.605   666.743   665.605   665.796   668.470   672.021   674.371   676.266   678.163   679.631   679.916   678.356   675.126   671.720   667.125   659.727   657.024   654.461   651.489   652.297   653.345   655.080   656.749   658.634   660.883   663.272   665.680   668.149   670.902   673.723   676.573   679.032   680.272   680.278   679.539   678.508   677.813   677.586   677.284   676.273   674.551   672.742   671.408   670.566   668.523   664.811   661.014   659.981   661.779   664.184   666.201   668.073   666.770   664.765   662.832   660.919   658.983   657.047   655.657   655.545   656.546   658.091   659.647   660.658   661.338   661.757   662.160   662.139   661.543   660.848   659.935   658.483   656.938   654.947   652.867   650.869   646.286   639.949   631.945   629.889   635.688   641.501   645.548   648.778   650.599   651.048   650.687   649.328   647.322   647.145   649.275   649.966   649.521   647.147   642.803   638.423   633.853   629.473   626.884   631.008   639.643   643.539   640.377   635.348   631.111   628.560   626.653   624.953   624.188   625.434   627.437   629.382   634.652   640.576   643.283   645.773   648.263   650.176   650.747   651.252   651.412   651.071   650.949   650.648   650.256   649.687   649.411   650.126   650.973   650.751   650.210   650.015   649.919   649.892   649.959   650.057   650.325   651.191   652.442   653.649   654.889   655.086   653.547   652.009   650.390   648.448   646.122   643.750   641.586   640.025   641.639   648.521   650.541   651.629   652.771   653.921   654.988   656.044   656.961   657.831   658.697   659.563   661.855   665.542   668.116   669.351   670.880   672.776   674.820   677.551   680.152   680.845   681.401   681.804   681.527   681.313   680.918   680.434   680.040   679.766   680.473
708.006   709.310   711.100   712.803   716.675   721.338   725.831   729.781   731.596   731.811   730.571   723.563   716.889   711.078   703.840   695.755   687.831   680.105   671.536   661.699   652.936   648.528   650.043   656.243   663.084   668.699   671.944   675.643   680.899   689.142   697.727   705.152   709.411   713.622   718.469   724.268   731.311   738.446   741.349   741.378   739.313   734.672   729.391   724.613   719.858   715.244   710.965   706.862   702.887   698.723   694.420   690.562   687.676   684.833   682.165   679.923   677.719   675.234   673.553   671.595   669.749   667.128   664.158   661.250   656.566   649.617   642.338   640.107   644.795   655.098   663.582   661.972   651.018   641.387   640.071   641.767   645.548   651.576   658.965   665.854   673.764   685.381   689.255   689.455   689.788   690.933   688.098   681.358   673.354   664.551   656.890   651.615   653.746   661.838   670.454   678.386   686.400   691.989   692.736   691.141   690.377   690.143   689.939   688.966   686.530   683.404   680.749   680.766   682.450   684.372   686.108   686.070   684.406   682.553   680.690   677.041   672.272   668.821   668.461   668.959   669.443   671.551   674.575   676.949   678.829   680.508   681.158   680.105   677.787   674.591   671.050   665.784   659.245   656.958   654.616   653.172   654.404   655.599   657.145   659.085   660.958   662.802   664.933   667.189   669.655   672.368   675.160   678.010   679.928   680.756   680.792   680.237   679.695   679.346   679.032   678.145   675.872   673.410   671.509   670.111   668.905   666.505   663.552   661.670   661.792   664.108   666.609   668.619   669.044   666.413   663.686   661.542   659.546   657.447   656.483   656.732   657.523   658.671   659.824   660.727   661.502   662.220   662.731   662.945   662.831   662.108   661.350   660.445   658.982   656.870   654.706   652.518   650.285   645.317   639.009   631.710   630.330   637.498   643.424   647.054   649.657   651.184   651.630   651.056   649.832   649.077   649.606   650.411   650.724   650.344   648.970   645.495   641.358   637.840   632.469   627.816   629.636   637.409   642.675   641.833   637.875   634.440   631.558   629.148   627.253   625.670   624.837   625.801   627.749   630.776   636.098   641.274   644.216   647.070   649.536   650.712   651.428   651.959   651.877   651.762   651.458   650.922   650.422   650.132   650.556   651.386   651.633   651.181   650.924   650.810   650.838   650.773   650.687   650.801   651.511   652.687   653.930   655.144   655.529   654.470   653.009   651.512   649.824   647.764   645.445   643.154   641.277   644.152   649.330   651.193   652.051   652.814   653.642   654.397   655.394   656.671   657.724   658.615   659.481   662.200   666.455   669.833   672.084   674.302   676.426   678.263   679.921   680.789   680.703   680.713   680.668   680.391   680.170   679.696   679.132   678.582   678.689   679.344
711.284   712.372   714.181   715.744   718.942   722.710   726.904   730.265   732.102   731.854   730.369   723.293   716.415   710.596   703.698   695.757   687.625   678.838   668.935   660.033   655.191   655.418   659.913   666.361   672.467   676.744   678.597   679.935   685.731   694.356   702.615   709.144   713.489   717.826   723.304   729.500   735.946   740.245   741.504   740.325   736.990   732.102   727.132   722.513   717.899   713.281   708.952   705.023   700.996   696.473   691.935   688.738   686.870   684.921   682.824   680.645   678.376   676.065   673.471   670.972   668.664   666.004   663.207   659.555   653.861   645.850   640.920   641.853   648.536   659.174   663.753   658.157   647.529   640.109   641.737   645.449   650.404   655.933   662.050   668.619   677.829   687.895   690.638   691.045   691.143   690.982   687.345   680.283   672.182   663.865   656.808   653.259   657.249   664.768   671.957   678.898   686.674   692.549   693.814   692.863   692.243   691.803   691.352   690.134   687.723   684.492   681.886   682.144   683.970   685.841   687.205   685.481   683.388   681.443   678.791   674.305   670.472   669.841   671.684   671.955   672.380   674.480   677.227   679.608   681.474   682.180   681.131   679.231   676.853   674.007   670.347   664.790   659.309   657.042   654.907   655.016   656.511   657.766   659.109   661.073   663.013   664.781   666.704   668.786   671.071   673.621   676.359   678.969   680.520   681.239   681.356   680.948   680.603   680.331   679.883   678.436   675.568   672.716   670.353   668.832   667.425   665.483   663.564   662.410   663.839   666.414   668.750   670.114   669.361   666.060   662.588   660.174   658.220   657.375   657.757   658.636   659.540   660.455   661.357   662.056   662.641   663.241   663.710   663.705   662.981   662.121   661.352   660.534   658.904   656.380   653.951   651.471   647.969   642.862   636.959   631.232   631.568   639.049   645.803   649.095   650.764   652.025   652.482   651.882   650.941   650.666   651.160   651.441   651.258   650.732   649.777   647.153   643.626   640.544   635.144   628.569   629.165   636.474   642.260   643.313   640.396   637.270   634.190   631.354   629.235   627.403   625.851   625.379   626.501   628.590   632.146   637.299   641.818   645.286   648.586   650.521   651.290   651.993   652.377   652.562   652.150   651.635   651.213   651.039   651.284   651.829   652.462   652.094   651.822   651.747   651.722   651.586   651.418   651.399   651.854   652.898   654.180   655.337   655.956   655.411   653.928   652.476   650.978   649.316   647.222   644.949   642.790   644.161   648.054   650.550   651.498   652.187   652.891   653.672   654.679   655.938   657.176   658.403   659.439   662.645   667.566   671.542   674.404   677.139   679.079   679.756   679.884   679.425   679.043   678.945   678.834   678.647   678.323   677.967   677.640   677.251   678.056   679.218
713.406   714.744   716.763   718.511   721.532   724.552   728.075   730.814   732.599   731.812   729.821   723.244   716.031   709.748   703.156   695.655   687.036   676.747   666.567   660.719   660.834   665.102   670.796   675.305   680.377   684.558   686.726   686.237   691.478   699.365   706.887   712.813   717.405   722.412   728.897   735.094   739.782   741.689   741.125   738.522   734.152   728.970   723.892   719.274   714.733   710.078   705.804   701.839   697.469   692.688   688.562   686.403   684.720   682.913   680.948   678.848   676.655   674.393   671.895   669.118   666.519   664.026   661.003   655.897   648.911   642.091   640.662   645.248   654.116   663.420   663.027   653.434   644.287   640.892   644.669   649.936   655.030   660.273   665.939   672.912   682.757   690.209   691.165   691.962   691.824   690.737   686.834   679.362   670.994   662.901   656.258   655.457   660.546   667.291   673.235   679.741   687.454   693.058   694.751   694.566   693.980   693.362   692.442   690.808   688.773   685.650   682.974   683.515   685.503   687.363   687.461   684.646   682.165   679.747   676.165   672.771   671.569   673.408   675.075   674.102   674.708   677.309   680.036   682.420   683.584   682.470   679.987   677.795   675.615   673.197   669.756   664.474   659.854   657.509   655.591   656.695   658.363   659.955   661.371   663.141   665.001   666.785   668.603   670.508   672.550   674.877   677.441   679.594   680.885   681.684   681.942   681.672   681.319   680.882   680.183   678.423   675.457   672.495   669.967   668.607   667.503   665.838   664.300   663.543   665.735   668.309   670.300   670.847   669.249   665.503   661.549   658.995   657.846   658.590   659.880   660.806   661.510   662.095   662.808   663.542   664.047   664.467   664.583   664.039   662.800   661.800   661.013   660.248   657.725   654.710   651.964   647.913   643.235   638.621   633.747   630.522   633.612   641.507   648.087   650.809   651.922   652.954   653.456   653.046   652.370   652.145   652.109   651.766   651.118   650.515   649.510   647.249   644.195   641.247   635.745   628.982   629.477   636.623   641.983   644.420   642.609   639.672   636.619   633.618   631.157   629.165   627.430   625.985   625.936   627.360   629.542   633.483   638.835   643.329   647.355   650.112   651.005   651.778   652.555   653.141   652.886   652.409   652.065   652.006   652.186   652.444   653.090   652.970   652.758   652.710   652.585   652.398   652.207   652.080   652.249   653.099   654.359   655.461   656.278   656.203   654.853   653.392   652.025   650.700   649.049   646.975   644.491   643.733   645.608   648.662   650.567   651.370   652.047   652.919   653.948   655.119   656.427   657.810   659.123   662.666   667.988   671.748   674.420   677.678   679.623   679.268   678.244   677.180   676.678   676.573   676.600   676.551   676.258   676.036   676.210   676.691   677.921   679.396
714.772   716.761   718.516   720.553   723.345   726.139   728.931   731.465   732.962   731.670   728.479   721.888   714.976   708.479   701.941   695.242   687.206   677.986   670.622   667.989   670.420   674.983   678.142   681.460   686.585   691.143   694.671   696.387   697.870   703.812   710.700   716.501   721.474   727.789   734.219   739.573   741.760   741.756   740.057   735.726   730.616   725.024   719.340   714.693   710.535   705.996   701.507   696.987   692.016   687.704   684.956   683.780   682.229   680.820   678.822   676.784   674.688   672.593   670.231   667.001   664.176   661.553   657.126   650.311   642.660   640.220   643.175   649.980   660.094   665.769   660.782   648.259   639.896   642.154   648.064   654.016   659.360   664.318   670.075   677.487   685.665   690.597   691.557   692.439   691.659   690.605   686.440   678.556   669.965   661.996   655.769   657.328   662.962   669.111   674.797   681.876   688.999   693.188   695.055   695.651   695.085   694.451   693.396   691.318   689.424   686.473   683.954   684.952   686.938   688.846   687.043   684.042   681.068   677.538   674.028   673.840   676.239   678.354   678.010   675.963   676.862   679.855   682.809   685.134   684.491   681.257   678.577   676.367   674.190   672.037   669.271   664.793   660.736   658.353   656.660   657.984   659.704   662.072   663.945   665.642   667.191   668.758   670.473   672.211   674.124   676.293   678.532   680.152   681.177   682.050   682.514   682.365   681.889   681.166   680.116   678.298   675.438   672.727   670.808   669.952   669.355   667.210   665.087   665.237   667.391   669.701   671.325   671.130   668.724   664.421   660.542   658.388   658.797   660.502   662.009   662.979   663.551   663.896   664.372   665.053   665.538   665.678   665.111   663.816   662.517   661.399   660.486   659.275   655.392   651.621   647.906   641.137   636.593   633.497   630.655   630.756   636.640   644.960   649.823   651.771   652.981   653.903   654.400   654.159   653.525   653.110   652.417   651.147   649.970   649.050   647.725   645.657   643.149   640.204   634.359   629.088   630.661   637.666   641.803   644.885   644.257   641.651   638.789   635.771   633.692   632.318   629.639   627.164   626.116   626.665   628.333   631.233   636.382   641.845   646.101   649.447   650.706   651.532   652.513   653.409   653.678   653.245   652.958   652.976   653.139   653.264   653.619   653.823   653.726   653.633   653.426   653.210   653.019   652.827   652.744   653.338   654.472   655.517   656.450   656.768   655.802   654.358   653.076   651.918   650.680   649.040   646.829   644.844   644.113   646.176   649.169   650.433   651.245   652.177   653.216   654.308   655.588   656.969   658.420   661.526   666.392   669.552   671.713   675.119   677.499   677.324   675.896   674.635   674.054   673.983   674.155   674.242   674.305   674.549   675.353   676.700   678.047   679.524
714.191   716.134   718.108   720.146   723.016   725.965   728.840   731.522   732.840   730.994   725.339   717.767   711.203   705.227   699.649   694.522   688.370   680.943   674.037   672.563   677.190   681.968   686.470   690.088   692.144   695.197   698.936   701.916   704.003   708.560   714.590   720.859   726.377   732.374   738.413   741.535   742.153   740.883   737.031   731.649   725.492   719.301   713.849   708.844   704.356   700.181   695.606   690.800   685.934   681.826   679.620   678.907   678.984   678.035   676.374   674.206   672.423   670.641   666.376   664.054   661.549   656.943   651.073   645.331   641.078   642.064   647.025   655.524   665.408   667.842   659.721   647.121   639.848   642.603   649.548   656.208   661.974   666.811   671.724   678.340   687.132   690.840   691.805   692.843   691.911   690.775   686.464   677.879   669.359   661.374   656.075   658.254   664.383   670.979   676.915   684.498   690.400   692.910   695.031   696.360   696.169   695.587   694.490   692.138   689.833   687.260   685.039   686.291   688.697   690.140   687.790   683.711   679.425   675.547   675.410   678.054   681.206   682.347   680.492   678.171   679.019   682.062   685.159   685.957   683.503   680.076   677.443   675.260   673.138   670.922   668.137   664.332   660.796   658.829   657.698   658.791   660.433   663.187   665.748   668.291   669.881   671.109   672.371   673.995   675.739   677.621   679.449   680.741   681.707   682.618   683.157   682.890   682.007   681.057   679.854   677.858   675.402   673.831   672.796   672.035   670.642   668.341   666.067   666.998   669.174   671.048   672.622   671.099   667.388   662.381   659.386   659.014   660.349   662.348   664.181   665.248   665.781   666.132   666.334   666.646   666.841   666.184   664.828   663.429   662.194   661.053   659.788   656.672   652.612   647.905   640.940   632.375   630.153   629.924   630.618   634.509   641.104   648.055   651.075   652.536   654.059   655.075   655.251   654.685   653.733   652.635   651.443   649.967   647.815   645.297   643.531   642.563   641.785   638.600   633.188   629.029   633.016   639.617   642.165   644.715   645.204   643.055   640.368   637.133   637.646   639.250   633.603   628.332   626.759   626.536   627.927   630.904   636.141   641.570   645.272   648.547   650.482   651.386   652.431   653.406   654.385   654.134   653.851   653.941   654.043   654.227   654.338   654.666   654.672   654.433   654.213   654.022   653.831   653.639   653.398   653.681   654.568   655.527   656.489   657.130   656.744   655.429   654.200   653.023   651.808   650.834   650.180   648.630   645.836   644.285   646.973   649.164   650.451   651.451   652.486   653.468   654.703   656.153   657.411   658.939   662.059   664.970   667.183   670.029   673.060   674.649   673.623   672.101   671.472   671.550   671.786   672.021   672.767   674.039   675.386   676.732   678.079   679.426
713.580   715.698   717.904   720.126   723.137   726.242   729.142   732.303   732.312   728.799   721.923   713.841   707.758   702.323   697.169   692.538   686.978   680.662   675.159   674.440   679.215   684.216   689.098   693.359   696.527   699.400   702.904   705.929   709.271   713.201   719.011   725.365   731.289   737.313   740.973   742.365   741.355   737.708   731.842   725.361   718.437   712.328   706.753   701.523   697.303   693.478   688.947   683.960   679.500   675.922   673.804   673.697   674.489   674.574   673.362   671.465   668.265   664.152   660.506   658.131   656.002   651.780   646.860   643.526   643.343   646.891   651.379   658.899   668.230   669.325   659.393   646.503   639.882   641.694   646.872   653.670   661.337   667.741   673.844   680.095   689.018   691.465   692.809   693.392   692.033   690.673   685.765   677.202   668.493   660.778   657.146   660.031   666.964   673.632   680.002   686.852   691.348   693.453   695.510   697.053   697.300   696.702   695.531   693.098   690.750   688.240   686.168   687.452   689.957   691.140   688.103   682.327   678.199   676.478   678.278   682.557   686.192   685.402   682.342   679.801   681.010   684.573   687.495   686.594   682.647   678.709   675.553   673.655   671.659   669.338   666.171   662.799   660.158   659.417   659.167   659.726   660.492   663.622   666.662   669.632   671.843   673.158   674.391   675.952   677.665   679.232   680.455   681.418   682.307   683.185   683.552   683.008   682.015   681.053   679.843   678.279   677.132   675.971   674.782   672.853   670.494   668.501   666.893   669.055   670.978   672.675   672.694   670.674   666.081   661.235   659.238   659.741   662.576   664.895   666.492   667.558   668.014   668.324   668.360   667.965   667.113   665.958   664.585   663.150   661.777   660.405   658.039   654.334   650.455   643.962   635.723   630.666   633.734   637.484   639.493   641.484   645.903   649.940   652.148   653.800   655.356   655.855   655.175   654.051   652.889   651.744   650.273   647.893   644.810   641.810   639.231   638.412   638.518   635.855   631.584   629.679   635.696   640.487   642.892   645.235   646.087   644.221   641.769   639.166   639.432   640.436   636.018   630.362   627.571   626.919   627.854   630.607   635.967   641.788   644.967   648.015   650.336   651.303   652.359   653.405   654.432   654.948   654.742   654.834   655.009   655.201   655.312   655.511   655.484   655.245   655.025   654.834   654.642   654.451   654.252   654.254   654.773   655.688   656.651   657.539   657.663   656.404   655.157   653.917   652.763   652.125   651.436   650.379   648.679   645.802   644.910   647.024   649.508   650.785   651.773   652.736   653.914   655.073   656.645   658.214   659.481   661.484   664.786   668.076   670.113   671.135   671.050   669.794   669.359   669.799   670.595   671.392   672.293   673.713   675.059   676.406   677.753   679.099
712.994   715.260   717.622   720.161   723.284   726.415   729.399   733.013   731.903   726.871   719.243   711.287   705.632   700.465   694.824   689.678   684.444   679.225   675.892   677.072   682.434   687.653   691.504   695.358   699.599   703.437   706.856   710.085   713.851   717.691   723.835   730.419   736.419   740.745   742.378   741.902   738.484   732.310   725.063   717.632   711.224   705.859   700.652   695.699   691.250   687.041   682.525   677.606   673.268   669.817   667.661   668.088   669.408   670.417   669.779   667.584   663.197   658.283   654.920   652.497   650.522   647.356   645.213   645.488   647.609   651.405   655.227   661.627   670.713   671.700   660.761   647.193   640.322   640.573   643.367   649.110   657.280   666.076   674.094   680.822   690.013   691.839   693.678   694.013   692.388   690.601   684.742   676.703   667.938   660.472   658.198   662.461   669.769   676.444   683.409   689.196   692.370   694.419   696.418   697.899   698.245   697.793   696.650   694.223   691.834   689.334   687.277   688.381   690.996   691.896   688.364   681.696   677.845   678.204   682.318   687.122   689.475   687.649   684.056   682.225   684.066   687.443   689.147   686.693   681.854   677.386   673.717   671.654   669.637   667.075   664.299   662.847   661.461   661.097   660.879   660.627   660.837   663.751   666.759   669.583   672.242   674.695   676.582   677.916   679.339   680.518   681.369   682.191   683.058   683.925   684.134   683.408   682.422   681.480   680.508   679.596   678.963   677.466   675.477   673.000   670.324   668.550   668.764   671.098   673.055   673.659   672.205   669.517   664.885   660.786   659.603   661.384   665.039   667.707   668.970   669.567   669.829   669.795   669.290   668.334   667.036   665.716   664.343   662.900   661.470   659.858   656.702   652.916   648.258   640.383   632.525   633.627   638.868   643.060   645.509   647.479   649.799   651.941   653.623   655.163   656.333   655.908   654.502   653.247   652.071   650.867   648.869   645.408   641.725   638.344   635.414   634.339   633.784   632.736   631.192   630.131   636.886   641.130   643.549   645.910   646.796   645.228   643.134   641.198   641.005   641.663   639.485   632.989   628.222   627.270   627.810   630.298   635.544   641.675   644.709   647.746   650.255   651.287   652.345   653.403   654.443   655.174   655.557   655.723   655.854   655.983   656.085   656.208   656.262   656.105   655.904   655.713   655.522   655.292   655.071   654.828   655.108   656.025   656.948   657.831   658.131   657.311   656.061   654.863   653.930   653.270   652.458   651.550   650.277   648.200   646.379   645.808   647.943   649.959   651.543   653.093   654.917   656.712   658.657   659.963   660.063   661.120   664.258   667.293   668.717   669.259   669.249   668.531   668.241   668.986   670.033   670.967   671.942   673.315   674.661   676.008   677.287   678.499
711.744   714.250   716.976   719.972   723.069   726.224   729.379   733.269   731.888   726.089   717.932   710.271   704.885   699.789   693.283   687.302   682.324   677.999   676.698   680.568   687.321   692.505   695.285   698.261   702.552   707.350   710.933   714.556   718.237   722.434   729.203   736.013   740.890   742.665   742.535   739.724   733.741   725.570   717.419   709.969   704.786   700.292   695.671   690.927   685.892   680.925   676.072   671.238   666.967   663.761   661.924   662.509   664.058   665.451   665.396   662.999   658.355   653.762   650.644   648.674   647.343   646.075   646.670   649.287   651.900   654.781   658.175   664.046   672.870   674.184   663.497   650.149   642.804   640.837   641.080   645.237   652.501   662.589   672.484   680.535   690.450   692.451   694.593   694.533   692.624   690.455   683.673   676.204   667.736   660.558   659.098   664.719   672.213   679.125   686.301   691.121   693.464   695.500   697.454   698.737   699.044   698.885   697.846   695.508   693.231   690.776   688.540   688.844   691.880   692.402   688.274   681.734   678.340   680.567   686.362   690.518   691.228   689.099   685.690   685.194   687.520   689.976   689.808   686.013   680.669   675.702   671.776   669.612   668.092   666.344   664.856   664.547   663.765   663.371   662.863   662.106   661.746   663.541   666.269   668.782   671.106   674.260   677.210   679.178   680.384   681.284   682.091   682.969   683.848   684.697   684.830   684.064   683.193   682.366   681.614   680.960   680.049   678.041   675.453   672.816   670.308   669.335   671.033   673.288   674.608   673.573   671.334   668.413   664.355   661.509   661.619   664.757   668.004   669.989   670.838   671.185   671.215   670.694   669.718   668.425   666.880   665.306   663.955   662.592   661.185   659.284   655.568   651.641   645.430   637.122   633.327   638.169   643.994   647.835   650.223   652.361   653.416   654.355   655.528   656.659   656.745   655.425   653.697   652.328   651.136   649.502   646.656   642.691   638.787   635.828   635.263   635.206   634.444   634.092   634.703   632.419   636.572   641.201   644.015   646.720   647.522   646.416   644.563   643.195   642.875   642.821   641.454   634.535   628.763   627.586   627.779   629.610   634.490   641.513   644.582   647.715   650.341   651.466   652.479   653.479   654.349   655.117   655.790   656.218   656.550   656.670   656.767   656.902   657.009   656.961   656.797   656.606   656.385   656.146   655.881   655.496   655.581   656.388   657.284   658.067   658.512   658.218   657.005   655.848   655.087   654.356   653.528   652.561   651.407   650.112   648.589   646.965   647.171   648.485   650.085   651.529   652.871   655.336   659.033   661.302   661.564   662.474   664.803   666.732   667.550   667.855   667.758   667.320   667.315   668.334   669.506   670.518   671.561   672.907   674.251   675.394   676.591   677.652
709.392   712.363   715.894   719.428   722.329   725.672   728.974   732.946   732.327   726.663   718.353   710.466   705.106   700.095   693.216   686.869   681.855   677.827   677.489   683.480   691.721   696.662   700.060   702.912   706.752   711.248   715.067   718.965   723.047   728.189   735.329   741.730   744.028   743.760   741.261   735.580   727.672   718.480   709.828   703.735   699.456   695.370   691.034   685.946   680.456   674.872   669.224   664.419   660.715   658.388   657.326   657.537   658.760   659.863   660.255   658.402   654.458   650.386   648.442   647.565   647.655   649.043   650.732   652.827   654.969   657.351   660.640   666.543   674.673   676.056   666.932   655.442   648.096   643.551   641.240   643.871   649.686   658.916   670.194   680.295   690.923   693.613   695.783   694.809   692.443   689.878   682.769   675.668   667.854   661.154   660.109   666.188   673.765   681.123   687.904   692.213   694.550   696.589   698.417   699.459   699.856   700.081   699.215   697.145   695.172   692.885   690.403   689.084   692.625   692.790   687.884   682.138   679.678   683.540   689.410   692.394   692.049   689.858   687.414   688.337   690.681   691.590   689.361   684.529   678.891   673.754   670.349   668.847   668.456   668.335   668.163   667.253   666.177   665.723   664.958   664.132   663.153   663.233   665.525   667.710   669.162   671.719   674.995   678.372   680.301   681.389   682.351   683.449   684.502   685.396   685.539   684.846   684.115   683.436   682.718   681.779   680.183   677.798   675.126   672.576   670.940   671.192   673.366   675.453   675.098   672.621   670.218   667.543   664.328   663.332   665.056   668.748   670.781   671.536   672.067   672.469   672.237   671.258   670.073   668.608   666.640   664.474   663.030   661.772   660.035   657.777   653.965   649.602   641.988   635.020   637.226   642.849   648.573   652.346   654.641   656.396   656.933   657.151   657.594   657.725   656.445   654.563   652.854   651.349   649.822   647.380   643.855   640.005   636.653   635.799   638.557   640.100   639.753   639.210   639.892   635.526   635.966   641.012   644.402   647.635   648.217   647.482   645.955   644.847   644.321   643.395   641.780   635.439   629.658   628.016   627.867   628.879   633.403   641.361   644.619   647.848   650.507   651.738   652.600   653.326   653.900   654.668   655.396   656.124   656.788   657.142   657.415   657.598   657.710   657.757   657.651   657.469   657.236   656.999   656.674   656.227   656.128   656.732   657.597   658.272   658.850   658.967   657.977   656.929   656.217   655.445   654.628   653.572   652.570   651.549   650.552   649.255   648.016   647.922   648.636   649.316   649.902   652.049   657.524   661.378   662.494   663.608   664.999   665.883   666.361   666.592   666.443   666.176   666.494   667.693   668.921   670.040   671.144   672.391   673.604   674.598   675.651   676.741
710.339   712.573   715.801   719.184   722.242   725.435   728.068   732.039   732.845   727.801   720.798   712.098   706.246   701.133   694.587   687.904   682.130   678.580   678.846   684.340   692.838   699.476   704.309   707.679   711.392   714.741   718.394   723.404   728.854   736.734   742.391   745.988   748.090   744.241   738.662   730.083   720.097   710.870   703.662   698.459   694.346   690.261   686.013   681.287   675.512   668.931   662.944   659.222   657.351   655.378   653.983   653.721   654.215   654.942   655.549   653.735   650.523   649.495   649.760   649.974   650.170   652.358   654.093   656.091   658.213   660.976   665.016   670.614   677.637   678.622   670.603   660.664   653.647   648.041   643.708   644.291   649.406   657.694   669.947   682.754   691.667   694.525   696.967   694.821   692.059   688.065   682.110   675.597   668.383   662.554   662.144   667.031   673.842   681.115   687.617   692.290   695.602   698.016   699.439   700.202   700.974   701.648   701.105   699.763   697.933   696.062   693.773   690.318   693.196   693.441   688.067   682.760   682.071   686.896   691.034   694.179   692.732   690.162   689.690   691.479   693.283   692.066   687.889   682.509   676.787   672.530   671.408   672.031   672.537   672.271   671.319   669.742   668.508   667.875   666.729   665.673   664.616   663.465   664.947   666.492   667.862   668.809   669.600   673.525   678.453   680.729   681.704   683.126   684.806   686.002   686.182   685.576   684.845   684.136   683.236   681.885   679.847   677.167   674.606   672.529   673.044   673.869   675.872   677.004   674.352   671.565   668.950   666.450   664.019   665.578   668.292   670.662   671.949   672.720   673.327   673.594   673.014   671.766   670.556   668.904   666.078   662.897   660.865   659.448   656.472   653.915   650.963   646.026   638.505   635.487   641.290   647.518   652.825   656.492   659.011   659.943   660.063   659.898   659.247   657.515   655.403   653.449   651.805   650.236   647.777   644.460   641.140   637.723   636.225   639.491   643.079   644.976   644.854   644.331   642.365   637.024   636.678   641.272   645.077   648.605   648.739   647.939   647.054   645.776   644.404   642.995   641.552   636.982   631.394   628.692   628.178   628.629   632.943   640.883   644.709   647.997   650.595   651.853   652.429   652.620   652.925   653.695   654.560   655.425   656.280   657.179   657.936   658.230   658.365   658.467   658.444   658.292   658.101   657.847   657.444   656.958   656.677   657.046   657.846   658.457   659.105   659.434   658.950   658.122   657.354   656.575   655.700   654.701   653.993   652.879   651.991   651.115   650.355   649.391   648.699   648.421   648.807   649.449   654.953   659.838   661.806   662.994   663.787   664.431   665.051   665.347   665.237   665.204   665.792   667.042   668.292   669.524   670.629   671.667   672.614   673.642   674.568   675.913
713.795   715.656   717.933   720.904   724.255   727.173   729.765   732.954   733.422   729.268   723.364   715.546   708.979   703.079   696.440   689.305   682.832   679.516   681.089   687.386   695.990   703.166   708.092   711.600   715.085   718.589   723.681   730.035   737.357   742.700   747.287   749.120   748.342   741.949   733.702   724.020   713.328   705.305   699.242   694.354   689.855   685.222   680.214   675.014   668.425   662.291   659.052   656.903   656.132   656.525   656.884   656.928   656.142   654.828   653.648   653.388   652.655   652.891   653.647   652.701   651.478   653.699   656.239   659.332   663.032   666.652   670.707   676.038   681.464   680.162   671.644   660.674   651.516   646.197   643.483   645.823   651.421   660.823   673.621   686.670   692.488   695.508   698.166   695.291   692.281   688.130   682.033   675.652   669.542   664.370   662.864   666.317   672.076   677.738   683.368   688.894   694.046   698.317   700.878   701.916   702.628   703.463   703.344   702.099   700.801   699.461   697.709   695.029   696.361   693.152   687.991   682.703   685.442   689.679   692.568   695.362   694.274   692.512   692.678   694.541   693.783   690.182   685.310   679.842   676.348   676.228   677.229   677.380   676.780   676.410   674.918   673.021   671.010   669.266   668.192   667.133   665.998   664.999   664.790   665.388   666.440   667.477   668.609   670.406   674.858   679.098   681.399   683.089   684.890   686.403   686.832   686.226   685.495   684.675   683.365   681.562   679.433   676.548   674.881   675.244   676.046   676.844   678.218   675.367   672.495   669.845   667.456   665.453   665.015   666.578   669.100   671.632   673.155   673.922   674.552   674.561   673.665   672.452   671.256   668.974   664.822   659.976   654.390   650.348   647.890   646.956   646.345   642.307   636.347   639.186   645.174   651.187   656.541   659.615   660.984   661.279   660.990   660.379   658.690   656.170   653.909   652.161   650.353   647.684   644.257   641.167   638.550   636.930   638.770   643.232   648.150   649.533   649.435   648.299   643.082   637.195   638.397   642.977   647.350   649.513   649.192   648.284   647.202   645.971   644.649   643.240   641.797   639.086   633.492   629.261   628.502   628.596   631.499   637.984   644.088   647.747   650.494   651.312   651.607   651.720   651.950   652.720   653.585   654.450   655.232   656.403   657.606   658.625   659.054   659.197   659.284   659.185   658.994   658.695   658.214   657.689   657.226   657.303   658.008   658.619   659.290   659.866   659.960   659.259   658.491   657.712   656.859   656.155   655.213   654.330   653.379   652.424   651.791   651.114   650.299   649.609   649.133   649.395   652.119   656.226   659.145   660.598   661.508   662.308   663.305   664.105   664.101   664.201   665.141   666.391   667.641   668.844   669.728   670.688   671.556   672.428   673.653   675.164
716.692   719.426   721.831   723.949   726.973   729.675   732.189   734.727   733.605   729.877   724.963   718.940   712.107   705.120   697.624   690.249   684.008   681.237   683.666   690.324   698.887   706.396   711.307   714.895   718.684   723.636   729.748   736.468   742.811   747.191   749.682   750.076   745.859   737.871   728.615   718.063   708.454   701.427   695.781   690.871   686.399   681.368   674.861   667.966   662.208   658.602   657.309   657.088   657.523   659.148   661.423   662.555   660.864   658.173   656.126   655.956   656.117   657.073   656.854   654.556   652.892   655.170   658.121   663.834   668.780   672.585   676.696   681.572   683.787   679.878   670.601   658.185   648.137   644.743   645.176   648.993   655.600   665.690   678.344   690.730   696.960   698.204   699.174   696.985   693.699   689.780   683.192   676.292   670.314   665.566   663.300   665.991   670.923   676.588   681.924   687.163   693.079   698.453   701.693   703.255   704.321   705.135   705.351   704.386   703.234   702.007   700.320   698.173   696.627   692.714   687.845   684.524   688.462   691.631   694.145   696.726   696.554   695.514   696.044   695.922   693.221   688.438   682.993   678.992   678.566   680.344   681.264   681.197   680.715   680.289   678.319   675.939   673.880   671.712   670.125   668.660   667.627   666.783   666.250   666.202   666.336   667.087   668.163   669.364   672.900   677.988   681.128   682.988   684.877   686.739   687.482   686.876   686.024   684.808   683.074   681.142   678.958   676.606   676.797   678.001   678.875   679.028   677.727   673.758   670.647   668.183   667.131   666.564   666.574   667.550   669.706   672.253   674.252   675.268   675.794   675.465   674.347   673.146   671.732   668.654   662.729   655.772   649.678   646.089   642.761   641.905   642.582   639.440   636.993   641.813   647.597   654.104   659.174   661.480   661.888   661.193   660.551   659.571   657.408   654.744   652.283   649.921   647.530   644.796   641.860   639.444   638.306   639.747   643.674   648.025   650.259   651.190   651.181   649.701   643.867   637.366   640.047   644.870   649.092   650.031   649.521   648.450   647.293   646.167   644.848   643.458   642.042   640.337   635.575   630.626   629.010   628.879   630.483   635.668   643.302   647.282   650.194   650.628   650.659   650.826   651.040   651.673   652.538   653.470   654.510   655.802   657.062   658.326   659.269   659.718   659.928   659.951   659.813   659.469   659.025   658.568   658.088   657.867   658.169   658.805   659.550   660.332   660.880   660.275   659.649   659.014   658.292   657.544   656.655   655.648   654.685   653.857   653.187   652.519   651.637   650.790   650.006   649.754   650.872   653.073   655.412   657.441   659.199   660.696   662.067   662.986   662.959   663.308   664.490   665.740   666.978   668.096   668.808   669.481   670.347   671.510   672.902   674.431
719.585   723.380   726.553   728.073   730.238   732.554   734.457   735.284   732.852   729.398   725.408   721.038   714.359   706.200   697.705   690.497   685.078   683.237   686.047   692.312   700.586   708.174   713.464   717.580   722.156   728.254   734.248   740.323   745.292   749.626   750.257   748.295   741.901   733.087   723.851   713.175   705.000   698.675   693.076   687.986   683.518   677.540   669.348   662.158   658.761   657.885   657.998   659.326   661.058   663.399   666.667   668.529   666.753   664.123   662.544   662.154   661.131   661.117   658.660   655.497   654.306   656.738   660.969   668.628   674.198   678.449   683.014   686.364   684.507   677.738   665.939   652.805   645.797   645.374   648.437   653.391   660.796   671.169   683.137   694.702   700.426   700.557   700.174   699.010   696.393   692.132   685.112   677.214   670.795   666.202   663.869   666.307   671.444   677.632   682.346   686.664   692.719   698.582   702.023   704.060   705.771   706.742   707.169   706.619   705.404   703.870   701.951   699.711   696.358   692.563   688.007   686.605   690.823   693.613   696.091   698.199   698.662   698.354   698.515   696.337   692.289   686.958   681.926   680.468   682.685   684.912   685.068   684.604   684.651   684.299   682.159   679.309   677.321   675.404   673.231   671.022   669.686   668.620   668.068   667.683   667.082   667.188   668.109   669.187   671.890   677.373   681.197   683.346   685.467   687.442   688.136   687.500   686.420   684.639   682.584   680.562   678.713   677.687   678.898   680.140   680.737   680.005   676.606   672.070   669.136   668.049   668.443   668.811   668.520   668.804   670.688   673.319   675.565   676.694   676.933   676.263   674.883   673.261   671.270   667.284   660.260   653.101   647.448   643.795   640.455   639.445   639.779   638.054   638.837   643.945   649.794   657.138   661.038   662.693   661.930   660.314   659.194   657.776   655.562   653.174   651.305   649.883   648.478   645.735   641.765   639.312   640.223   644.007   648.051   650.687   651.662   652.290   651.755   650.106   644.052   638.295   641.666   646.741   650.067   650.413   649.883   648.759   647.544   646.338   645.038   643.692   642.227   640.373   636.121   631.373   629.350   629.164   629.880   633.942   641.989   645.671   648.346   648.102   647.089   646.531   646.902   650.671   651.587   652.647   653.891   655.228   656.492   657.821   659.024   659.958   660.533   660.723   660.722   660.460   660.028   659.518   659.005   658.718   658.739   659.104   659.832   660.757   661.627   661.693   661.056   660.375   659.696   658.922   657.950   656.948   655.985   655.249   654.572   653.809   652.929   652.137   651.538   650.940   650.714   651.666   653.566   655.637   657.603   659.387   660.900   661.782   661.947   662.648   663.898   665.148   666.345   667.228   667.790   668.384   669.365   670.784   672.281   673.764
723.267   727.253   731.060   732.869   733.731   734.942   735.406   733.329   730.856   727.848   724.670   720.953   714.445   705.355   696.430   689.949   685.562   684.798   687.691   692.999   700.661   708.141   714.358   719.480   724.824   730.587   735.564   740.585   745.705   749.872   749.237   744.285   737.617   728.590   719.655   709.955   702.475   696.590   690.945   685.550   680.556   673.160   664.200   659.126   658.572   659.529   661.163   663.354   666.112   669.053   671.994   673.751   672.802   671.371   670.714   670.154   667.141   664.623   659.274   655.882   655.597   658.259   664.512   672.617   678.640   683.891   688.549   689.026   683.344   672.702   657.766   646.797   645.551   648.206   652.746   658.548   666.183   676.441   687.429   698.145   701.051   701.670   701.225   700.649   699.333   694.290   686.816   677.864   671.020   666.398   664.704   667.243   673.640   680.411   684.391   687.340   692.805   698.789   702.207   704.582   706.909   708.273   708.823   708.638   707.302   705.210   702.962   700.293   696.798   692.842   688.405   688.145   692.578   695.879   698.320   699.769   700.370   700.510   699.667   696.134   691.212   685.712   682.502   683.984   687.439   689.288   688.909   687.993   688.393   688.242   686.222   682.971   680.635   679.286   677.010   674.191   672.153   670.748   669.698   669.013   668.157   667.625   668.281   669.206   671.479   677.221   681.841   684.474   686.770   688.487   688.803   688.036   686.598   684.359   682.153   680.169   679.020   679.469   680.758   681.711   681.401   679.757   675.340   670.596   668.629   669.392   670.837   671.373   670.631   670.627   672.359   674.907   677.099   678.129   677.958   676.724   674.733   672.457   669.619   664.649   657.578   651.432   646.270   642.132   639.784   639.134   638.511   638.313   641.187   645.983   652.101   659.502   662.255   663.511   661.827   659.625   657.790   656.254   654.799   653.360   652.464   652.081   651.270   647.865   642.411   640.215   643.482   648.083   650.854   651.914   652.890   653.224   651.931   650.144   644.299   639.674   643.581   648.460   650.596   650.827   650.344   649.381   648.153   646.825   645.266   643.603   641.916   639.443   635.458   631.466   629.577   629.445   629.684   632.543   639.472   643.061   644.855   643.848   642.131   641.102   641.588   646.488   650.669   651.942   653.246   654.529   655.783   657.083   658.557   659.904   660.763   661.214   661.592   661.601   661.213   660.655   660.103   659.728   659.512   659.612   660.283   661.280   662.347   663.009   662.297   661.567   660.857   660.118   659.168   658.243   657.319   656.624   655.921   655.083   654.276   653.685   653.356   652.627   651.728   651.547   652.670   654.533   656.438   658.224   659.702   660.580   661.066   662.088   663.367   664.564   665.495   666.128   666.644   667.572   668.669   670.016   671.436   672.769
726.550   730.288   734.523   737.385   735.905   734.089   732.383   730.294   727.922   725.184   722.440   718.214   710.960   701.888   693.498   688.452   685.546   685.283   687.994   692.446   699.192   707.157   714.520   720.002   724.854   729.255   734.098   739.111   744.223   749.209   745.295   740.391   733.653   725.049   716.446   708.230   700.978   695.112   689.155   683.081   676.809   669.439   662.573   659.248   659.918   662.910   666.449   669.439   672.171   674.704   676.604   678.355   678.789   677.991   676.303   673.842   671.516   667.592   659.859   656.436   656.859   659.768   666.237   674.936   682.523   688.349   690.509   687.454   679.452   662.283   648.589   646.149   647.195   651.820   657.984   664.077   671.559   681.018   691.048   700.270   701.429   702.493   702.196   701.606   700.364   695.430   686.914   677.505   670.861   666.248   665.654   668.596   676.450   684.337   688.988   689.905   693.223   699.112   702.710   705.411   707.894   709.607   710.283   710.144   708.709   706.129   703.617   700.976   697.784   693.438   688.594   689.285   694.065   698.073   700.372   701.486   702.054   701.778   699.862   695.333   689.880   684.711   684.570   688.527   691.343   692.443   692.059   691.193   691.452   691.439   689.567   686.006   682.730   681.670   680.150   677.469   674.788   673.427   671.107   669.801   669.046   668.401   668.565   669.293   671.647   677.500   683.059   686.367   688.497   689.587   689.487   688.428   686.521   684.236   682.076   680.494   680.186   681.341   682.499   682.924   681.041   678.587   673.781   669.793   669.726   671.484   673.394   673.640   672.703   673.154   674.804   676.819   678.709   679.451   678.796   676.574   673.450   670.493   666.570   660.613   654.303   648.805   644.080   640.624   639.765   640.114   639.126   640.031   643.682   648.177   654.473   660.369   662.970   664.095   662.203   659.847   657.239   656.295   656.491   656.596   656.305   655.272   652.827   647.874   642.103   641.555   646.901   650.773   652.080   653.168   654.053   653.903   652.160   650.208   645.376   641.031   645.747   649.794   650.996   651.361   650.927   650.263   649.138   647.757   645.593   643.184   641.065   638.207   634.590   631.438   629.922   629.832   629.887   631.358   635.721   639.614   640.391   638.937   637.529   636.952   637.537   639.227   648.444   651.166   652.448   653.618   654.869   656.096   657.813   659.387   660.392   661.151   662.016   662.481   662.433   662.069   661.504   660.920   660.478   660.490   661.081   662.019   663.135   663.943   663.215   662.519   661.772   661.081   660.329   659.501   658.689   657.988   657.231   656.428   655.770   655.429   655.209   654.508   653.557   652.301   652.150   653.566   655.389   657.010   658.353   659.383   660.352   661.605   662.861   663.842   664.366   664.831   665.402   666.753   667.865   668.900   670.201   671.554
729.578   733.790   736.680   734.336   731.967   729.648   727.646   725.605   723.623   721.580   717.659   712.394   704.926   697.478   691.322   687.265   685.907   686.481   688.111   691.779   698.455   706.613   713.980   719.361   723.793   727.909   732.533   737.635   744.515   746.821   741.802   736.370   730.034   721.967   714.823   707.426   700.307   694.328   688.265   681.738   675.305   668.861   662.692   659.568   661.443   666.182   671.367   675.868   678.602   681.212   683.561   685.086   685.266   683.722   679.802   676.088   672.699   668.910   661.531   657.630   657.583   661.079   666.751   675.839   683.891   689.223   690.572   684.776   675.572   659.902   647.445   646.360   649.627   656.025   663.041   668.718   675.629   684.382   693.804   700.800   702.247   703.376   702.907   701.459   700.126   692.685   683.425   675.635   669.777   665.586   666.604   671.352   679.297   687.715   695.187   696.525   695.693   699.315   703.979   706.838   709.133   710.580   711.127   710.669   709.376   706.862   704.350   701.772   699.315   694.579   688.954   690.435   695.277   699.562   701.714   703.286   703.763   702.325   699.517   694.417   689.177   685.998   687.657   691.706   694.076   695.168   695.302   694.877   694.333   692.724   690.108   687.042   685.130   683.287   681.704   679.179   676.654   674.148   672.052   670.354   669.399   669.111   669.376   670.800   673.429   678.344   683.378   687.696   690.179   690.648   690.154   688.783   686.777   684.754   682.906   681.889   682.484   683.419   684.063   682.259   680.191   677.248   673.457   670.017   671.837   674.399   676.258   675.891   674.814   675.856   677.668   679.285   680.227   680.271   678.742   675.641   671.744   666.831   660.740   654.146   647.727   642.944   640.129   640.209   641.874   642.112   640.464   642.616   646.109   650.369   656.581   661.086   663.606   664.609   662.566   660.174   657.970   658.170   659.308   659.777   659.280   657.357   654.018   647.654   641.741   643.400   648.900   651.817   653.358   654.627   655.323   654.299   652.487   650.647   647.307   642.259   646.804   650.101   651.096   651.920   651.577   650.851   650.062   648.479   646.112   643.525   640.844   637.948   635.122   632.496   630.840   630.563   630.533   630.806   632.299   634.928   636.690   635.719   634.505   634.422   635.745   637.304   640.976   649.890   651.344   652.550   653.879   654.994   656.071   657.896   659.526   660.398   661.155   662.172   663.350   663.771   663.255   662.625   662.124   662.005   662.423   663.012   663.945   664.784   664.179   663.421   662.742   661.976   661.303   660.630   660.048   659.298   658.530   657.921   657.498   657.332   657.102   656.427   655.258   653.798   652.364   652.640   654.225   655.524   656.698   658.066   659.871   661.306   662.292   662.751   663.134   663.538   664.148   665.199   666.159   667.151   668.707   670.775
734.063   734.877   733.372   729.336   726.348   724.027   721.827   718.799   715.783   713.324   710.031   705.773   699.763   693.583   689.152   686.779   686.990   688.592   689.463   691.040   696.192   704.065   711.434   717.013   721.974   726.373   731.340   736.877   744.143   743.052   736.560   731.469   726.083   719.332   712.942   706.273   699.716   693.617   687.568   681.253   675.045   669.193   663.691   660.378   662.792   669.487   676.393   682.673   686.521   687.998   688.973   689.149   687.427   682.479   676.288   671.877   668.504   664.037   661.633   658.863   658.120   661.535   666.895   675.907   684.151   689.835   690.702   683.021   671.464   657.049   647.166   646.973   651.717   659.676   667.068   672.544   678.723   687.415   696.827   701.320   703.032   704.476   703.253   701.556   699.060   690.382   681.678   674.454   669.089   666.083   667.854   673.975   682.058   691.142   698.323   699.439   697.473   699.468   704.479   707.998   710.264   711.378   711.842   710.990   709.635   707.419   705.025   702.531   700.392   695.392   689.303   691.827   697.046   700.523   702.758   704.784   704.261   702.227   698.863   693.169   688.177   687.231   691.012   695.951   698.157   698.260   698.149   697.564   695.857   693.282   690.573   688.592   687.322   685.033   682.620   679.800   677.430   674.808   672.935   671.136   670.027   669.878   670.652   672.384   675.260   679.549   684.596   688.912   691.226   691.468   690.605   689.200   687.329   685.386   684.039   684.178   684.868   685.148   683.416   681.173   678.960   676.028   672.641   672.922   675.016   677.359   678.991   678.116   676.980   678.057   679.621   680.800   681.083   680.466   676.851   671.770   666.585   660.617   654.401   647.964   642.722   640.822   641.492   643.060   644.751   643.850   643.178   645.791   649.266   653.363   658.878   662.084   664.597   665.008   662.939   660.465   659.097   659.593   660.461   660.843   660.481   658.964   655.404   649.380   643.933   644.634   649.855   652.262   654.114   655.755   656.213   654.652   652.964   651.179   648.592   643.857   647.160   650.138   651.168   652.095   652.075   651.422   650.597   649.087   646.706   643.989   641.173   638.490   635.921   633.324   631.690   631.417   631.417   631.639   631.961   632.292   633.203   633.358   634.395   634.323   634.057   636.053   639.290   649.517   650.999   652.601   654.002   654.870   655.158   656.414   658.027   659.154   660.118   661.257   662.539   663.773   664.436   664.250   663.719   663.546   663.961   664.464   665.071   665.611   665.084   664.395   663.717   662.950   662.278   661.606   661.024   660.486   659.951   659.577   659.326   659.199   659.024   658.166   656.784   655.214   653.530   652.650   652.917   653.818   655.085   656.659   658.719   660.384   661.055   661.452   661.823   662.130   662.517   663.493   664.455   666.619   669.496   671.377
735.762   732.727   728.092   723.504   719.821   717.021   714.122   710.974   707.820   704.914   702.214   698.971   694.674   690.424   687.648   687.058   688.960   692.091   693.792   694.225   696.469   701.453   707.776   714.277   720.469   725.546   730.803   736.912   744.369   739.496   732.026   727.195   722.640   716.928   711.083   705.273   699.282   692.799   686.696   680.732   674.779   669.360   664.370   661.455   664.327   671.801   679.892   687.252   691.326   691.917   691.024   689.179   684.460   677.764   671.026   667.514   665.473   661.670   660.633   659.083   658.340   661.001   666.400   675.223   683.826   690.153   690.406   681.954   668.880   655.111   647.380   647.782   653.431   662.734   670.108   675.422   681.304   689.860   699.257   701.965   703.880   705.567   703.717   701.813   698.662   689.674   682.165   674.700   669.169   666.780   668.965   675.917   683.933   693.191   699.793   700.710   698.631   700.007   705.325   709.257   711.233   712.279   712.492   711.271   709.807   707.793   705.578   703.391   701.109   696.597   689.985   693.733   698.996   702.048   704.385   706.023   704.624   702.187   698.254   692.272   688.126   689.375   694.682   699.373   700.838   700.547   700.175   699.287   697.365   694.713   692.207   690.659   688.456   685.192   681.870   679.179   677.106   674.937   673.177   671.359   670.807   671.179   672.160   673.910   676.627   680.646   686.100   690.403   692.435   692.399   691.150   689.666   687.879   686.310   685.787   686.278   686.297   684.814   682.194   679.976   677.689   675.153   674.217   676.081   678.238   680.131   681.410   680.152   679.157   679.972   681.244   681.753   681.175   678.958   673.537   666.849   660.536   654.451   648.900   643.755   641.249   643.230   645.834   647.086   647.381   645.446   646.301   649.087   652.558   656.290   660.425   663.031   665.533   665.556   663.488   661.448   660.672   660.969   661.445   661.627   661.129   659.913   656.306   650.307   645.122   645.307   650.255   652.505   654.741   656.807   656.918   655.139   653.391   651.592   649.537   644.974   647.927   650.407   651.516   652.432   652.460   651.775   650.920   649.673   647.252   644.346   641.421   638.777   636.330   633.898   632.616   632.740   632.893   633.118   633.138   632.870   633.911   635.222   636.792   636.495   634.874   635.245   638.305   649.375   651.974   654.170   656.091   657.042   656.829   656.727   657.112   658.076   659.186   660.354   661.717   663.217   664.505   665.255   665.313   665.087   665.503   665.955   666.324   666.549   666.042   665.370   664.695   663.987   663.315   662.642   662.117   661.742   661.434   661.145   660.934   660.906   660.565   659.567   658.021   656.245   654.423   653.316   653.150   653.415   654.079   655.461   657.403   658.754   659.494   660.037   660.457   660.737   661.000   661.753   663.458   667.105   670.120   671.548
733.736   728.809   723.849   718.166   713.516   709.316   705.315   703.309   701.322   698.483   695.678   692.869   689.970   688.165   687.192   688.109   691.661   696.635   700.563   701.850   701.591   702.358   706.205   712.858   720.112   725.851   731.234   737.686   745.127   737.243   729.876   724.689   719.965   714.532   709.272   704.299   698.478   691.524   685.322   679.561   673.760   668.763   664.315   662.722   666.203   673.279   682.055   689.599   692.605   692.362   689.875   685.570   678.699   672.959   668.661   667.471   667.081   664.756   661.190   659.765   658.823   660.067   665.485   674.048   683.056   690.214   689.799   681.295   668.203   654.612   647.802   648.728   654.916   664.933   672.099   677.383   683.551   691.873   700.622   702.584   704.630   706.448   704.645   702.405   699.372   690.853   684.278   676.813   670.034   667.364   669.811   676.990   684.755   693.688   700.213   701.345   699.459   700.864   706.425   710.385   712.008   713.169   713.111   711.622   710.069   708.225   706.655   704.884   702.089   697.918   691.334   696.212   700.936   703.953   706.456   707.131   705.018   702.262   697.915   691.904   689.080   692.233   697.880   701.408   702.268   702.119   701.479   700.353   698.777   696.540   694.140   692.002   688.528   684.323   680.419   678.252   676.452   674.719   672.986   671.593   671.960   672.868   673.832   675.375   677.681   681.896   687.640   691.658   693.287   693.207   691.931   690.314   688.652   687.682   687.829   687.723   686.287   683.320   680.803   678.918   676.935   675.624   676.877   678.862   680.885   682.469   683.533   682.278   681.628   682.096   682.463   681.966   680.264   676.129   669.404   661.800   654.846   649.086   644.881   642.701   643.853   648.358   651.194   651.173   649.275   647.383   649.315   652.265   655.633   659.202   662.061   664.212   666.489   666.278   664.538   663.026   662.598   662.587   662.443   662.079   661.300   660.074   656.243   650.102   645.527   646.083   650.796   653.444   655.977   658.130   657.562   655.724   653.824   651.926   649.987   645.792   649.070   651.080   652.152   653.035   652.809   652.001   651.126   650.107   647.482   644.189   641.144   638.722   636.518   634.457   633.765   634.292   634.597   634.810   634.847   634.805   636.408   638.534   640.088   638.577   635.966   635.196   638.258   648.756   652.733   655.826   658.335   659.326   659.008   658.172   657.701   657.968   658.660   659.663   660.987   662.465   663.938   665.287   666.150   666.474   666.882   667.203   667.408   667.481   666.974   666.306   665.672   665.000   664.328   663.818   663.415   663.156   662.922   662.644   662.466   662.313   661.584   660.400   658.797   656.980   655.195   654.146   653.898   653.919   654.158   654.701   655.677   656.738   657.619   658.383   658.955   659.312   659.580   660.315   662.825   666.494   669.537   670.667
732.266   727.225   721.778   715.229   709.262   702.928   698.266   696.806   694.931   692.305   690.057   688.731   687.625   687.047   687.678   689.863   694.559   700.912   706.675   710.126   711.045   711.217   711.778   714.604   721.368   727.144   732.952   739.091   744.760   736.572   730.424   724.349   717.650   711.967   707.212   702.560   696.248   689.312   683.186   677.479   671.824   667.296   663.920   664.294   668.397   675.178   684.634   691.866   693.529   690.995   687.222   680.259   674.738   671.108   672.454   673.791   673.667   671.172   666.833   663.929   660.819   660.017   664.784   672.744   681.693   690.067   689.363   680.761   668.774   655.358   648.239   649.779   656.309   665.921   673.000   678.601   685.430   693.753   700.909   703.042   705.147   707.074   706.203   703.573   700.861   693.554   686.828   680.644   671.403   667.879   670.414   677.242   684.747   693.203   699.895   701.823   700.358   701.760   707.182   710.949   712.560   713.799   713.761   712.157   710.585   709.093   708.871   707.372   703.811   698.799   693.407   698.957   702.713   705.645   708.415   708.206   705.351   702.342   698.001   692.107   690.749   695.229   699.905   702.359   703.552   703.422   702.383   701.176   699.738   697.800   695.085   691.646   687.914   683.510   679.567   677.930   676.198   674.476   672.766   672.504   673.563   674.599   675.595   676.826   678.845   683.692   689.026   692.049   693.161   693.490   692.806   691.214   689.855   689.410   689.429   687.972   684.780   681.756   679.463   678.215   677.139   677.619   678.857   681.008   682.774   684.371   685.329   684.337   683.914   683.874   682.752   681.125   678.268   672.774   665.307   657.296   650.166   645.159   643.336   645.195   649.443   653.952   655.974   654.397   650.492   649.899   652.108   655.280   658.634   662.217   664.475   666.050   667.604   667.236   666.156   664.964   664.438   663.921   662.971   661.959   660.928   659.191   654.888   648.987   645.682   647.290   651.821   655.314   658.023   659.583   658.200   656.279   654.221   652.138   649.907   646.816   650.265   651.985   653.055   653.667   652.935   651.979   651.107   650.056   646.892   643.099   640.213   638.361   636.570   635.104   635.101   635.847   636.260   636.495   636.617   637.125   639.531   641.943   642.310   639.186   636.160   635.890   639.004   647.392   652.739   657.009   659.699   660.606   660.487   659.848   659.318   658.822   658.784   659.433   660.503   661.776   663.170   664.613   666.055   667.243   667.840   668.165   668.296   668.355   667.871   667.227   666.623   665.951   665.326   665.215   664.961   664.721   664.421   664.130   663.957   663.386   662.224   660.845   659.300   657.623   655.956   655.046   654.970   655.203   655.375   655.052   654.926   655.558   656.163   656.743   657.299   657.813   658.436   659.470   662.041   664.796   667.927   669.070
729.534   724.045   718.319   710.530   704.953   699.614   694.372   691.512   690.210   689.469   689.209   689.150   689.275   689.311   688.308   690.098   695.154   701.656   708.315   713.064   715.809   717.618   718.860   720.524   724.869   730.625   736.118   742.078   741.032   734.071   728.314   721.938   715.296   709.831   704.903   699.437   692.559   686.088   680.300   674.696   669.611   665.387   664.515   666.891   671.705   679.327   687.651   693.175   693.331   688.831   682.681   676.979   674.524   677.532   680.306   682.372   681.703   677.568   673.318   670.497   667.603   664.397   665.515   671.378   679.445   689.232   688.711   680.239   669.912   656.779   648.697   650.160   656.384   665.641   673.453   679.368   686.641   694.601   701.559   704.885   706.827   708.554   707.984   704.964   702.015   696.752   689.330   683.407   672.458   668.266   670.503   676.684   684.187   692.398   699.612   702.745   701.663   702.745   707.688   711.059   712.748   714.260   714.758   713.232   711.858   710.983   710.911   709.393   704.625   699.536   694.921   700.268   703.936   707.271   709.854   709.025   706.063   702.794   698.650   693.326   693.620   698.238   701.766   704.045   705.048   704.284   703.196   702.066   700.773   698.543   695.039   691.327   687.178   682.745   679.244   677.607   675.875   674.230   672.670   673.611   674.861   676.024   677.237   678.357   680.794   686.237   689.942   691.314   692.190   692.793   692.863   692.145   691.253   690.711   689.107   685.662   682.384   679.734   678.653   678.052   678.345   678.670   679.831   682.212   684.584   686.450   686.484   684.792   683.432   681.965   680.680   678.757   675.427   669.872   662.475   653.817   646.295   643.860   646.466   650.410   654.273   658.103   659.400   655.962   652.011   652.634   655.263   658.400   662.600   665.324   667.557   669.060   669.007   668.639   667.934   667.012   665.233   663.083   661.695   661.079   659.921   656.766   652.103   647.571   645.881   648.598   653.057   657.238   660.210   660.298   658.795   656.584   654.361   652.034   649.483   648.812   650.984   652.563   654.188   653.730   652.321   651.310   650.497   648.954   644.745   640.714   638.875   637.797   636.408   635.750   636.381   637.254   637.801   638.202   638.613   640.207   643.924   645.991   641.455   638.259   635.739   636.933   639.839   645.592   652.641   658.126   660.143   661.039   661.156   660.852   660.339   659.897   659.698   659.935   660.510   661.349   662.547   663.964   665.403   666.810   668.076   668.941   669.161   669.186   668.779   668.189   667.517   666.858   666.384   666.852   666.741   666.382   665.999   665.673   665.327   664.162   662.783   661.318   659.915   658.419   656.806   656.149   656.589   657.206   657.433   657.136   656.912   656.586   656.167   655.765   655.814   656.385   657.810   659.360   660.804   663.122   666.077   667.504
724.841   718.654   711.844   705.453   700.205   695.447   691.340   690.528   692.107   693.802   695.206   696.202   697.022   695.671   691.325   690.346   694.315   700.295   707.176   713.307   717.706   721.149   723.260   725.125   728.903   734.011   739.078   743.414   738.167   731.748   725.631   719.372   714.289   708.910   702.412   695.494   688.548   682.497   677.311   672.148   667.686   665.647   666.773   670.170   675.714   683.362   690.821   694.320   691.754   685.787   679.585   676.315   678.635   684.509   688.332   690.871   690.949   686.662   680.198   676.729   673.868   669.392   666.140   670.057   677.023   687.874   688.591   679.947   669.417   658.625   651.024   649.474   653.131   661.234   670.520   678.081   686.524   694.721   701.644   706.524   708.719   709.629   709.571   706.894   703.463   699.408   692.352   685.829   677.035   670.114   670.213   675.522   682.931   691.369   699.110   703.505   703.247   703.678   707.791   711.072   712.865   714.748   715.721   714.409   713.265   712.556   711.953   709.951   705.363   700.058   696.355   701.641   706.117   709.246   710.582   708.908   705.784   702.435   698.385   695.630   697.578   701.200   703.811   705.737   706.170   705.117   703.756   702.140   700.408   697.938   694.539   690.836   686.543   682.268   679.139   677.432   675.700   673.992   673.639   674.817   676.083   677.374   678.581   680.835   684.786   688.590   690.464   691.282   692.002   692.373   692.198   691.704   691.035   689.675   686.853   683.163   680.306   679.387   679.240   679.412   680.485   680.948   682.252   683.775   686.208   687.023   685.248   682.961   680.901   677.389   674.620   673.118   671.141   667.472   661.576   653.206   645.439   644.534   649.661   654.283   658.218   660.670   659.572   656.144   653.324   655.722   658.618   663.098   668.296   669.480   670.049   669.949   669.676   669.565   668.928   666.834   664.114   661.558   659.479   657.948   656.129   653.108   649.513   646.849   647.102   650.811   655.632   659.477   660.889   661.204   659.376   656.775   654.163   651.474   649.043   650.324   652.678   654.413   655.133   653.257   651.722   650.497   647.735   644.526   641.293   639.122   637.983   637.035   636.321   636.458   637.455   638.533   639.180   640.000   642.774   647.774   649.077   647.007   639.641   637.488   635.457   637.742   641.194   646.739   654.416   659.366   660.750   661.525   661.882   661.607   661.178   660.942   660.929   661.233   661.601   661.934   662.436   663.362   664.723   666.078   667.436   668.793   669.861   670.093   669.743   669.083   668.420   667.915   667.519   668.064   668.546   668.249   667.866   667.219   666.055   664.651   663.217   661.882   660.663   659.415   658.072   657.410   658.016   659.091   659.584   659.490   659.218   658.736   658.161   657.572   657.164   656.592   657.738   659.440   660.883   662.344   664.366   666.075
719.415   712.439   705.797   700.617   695.895   693.165   692.617   694.801   698.316   701.486   703.808   704.828   704.235   700.377   693.886   690.559   693.067   698.413   704.849   711.392   716.691   721.187   724.001   726.806   731.149   736.171   740.961   742.292   736.270   730.464   722.915   716.642   711.835   705.696   698.422   691.475   684.890   679.170   674.338   670.012   666.890   666.996   669.763   673.869   679.549   686.647   693.347   695.295   690.093   683.318   678.372   678.783   684.640   690.611   694.777   697.927   698.321   694.053   687.840   684.030   680.286   675.242   669.435   669.926   675.282   685.695   688.238   680.266   669.620   660.324   653.562   650.305   650.699   655.676   664.399   673.828   684.328   693.242   700.222   706.594   710.039   710.898   710.719   708.461   704.839   701.093   694.713   688.114   680.624   672.210   670.166   674.626   681.864   690.356   698.408   704.140   705.049   704.685   707.733   711.180   713.127   715.183   716.486   715.746   714.766   713.980   712.473   710.189   705.789   700.655   697.681   702.818   707.976   711.103   710.689   708.158   704.941   701.623   698.667   698.508   701.820   704.835   706.605   707.487   706.687   704.968   703.175   701.326   699.255   696.627   693.609   690.243   686.241   682.075   679.116   677.437   675.759   673.977   674.630   675.922   677.280   678.630   681.240   685.273   688.345   689.937   690.651   691.202   691.676   691.829   691.534   690.938   689.949   687.859   684.685   681.724   680.746   680.818   681.643   682.594   683.946   684.554   685.574   686.717   688.153   686.982   684.257   681.394   675.643   670.853   667.385   664.996   663.505   662.101   658.763   652.372   645.508   644.809   650.657   656.335   660.582   661.569   658.680   656.009   655.971   658.897   662.975   667.816   670.701   671.357   671.529   670.954   670.576   670.278   669.130   666.284   662.961   659.918   657.180   654.635   652.216   649.803   647.887   647.498   649.510   653.748   658.258   660.957   661.791   661.447   659.598   656.682   653.864   651.116   650.003   651.977   654.318   656.200   654.927   652.671   650.848   647.782   643.897   640.865   638.863   637.698   637.089   636.799   636.839   637.229   638.183   640.225   642.682   644.819   648.121   650.716   650.733   647.870   639.839   637.338   636.234   638.549   642.798   649.231   657.568   660.371   661.313   662.026   662.655   662.474   662.147   662.200   662.424   662.723   662.994   663.235   663.583   664.068   664.600   665.346   666.720   668.195   669.623   670.497   671.043   670.294   669.453   669.039   668.655   669.212   669.852   669.690   669.044   667.964   666.582   665.091   664.461   662.935   661.398   660.188   658.921   658.122   658.604   660.296   661.768   662.121   662.002   661.493   660.635   659.524   658.500   657.415   657.587   659.311   660.821   662.169   663.744   665.339
714.423   707.084   701.420   696.661   693.881   694.420   697.703   701.964   706.062   709.665   712.293   712.477   709.408   703.274   695.865   690.950   692.435   697.423   702.730   708.483   713.739   718.486   721.925   726.020   731.262   736.691   741.505   740.289   734.977   729.136   720.001   713.336   707.574   700.548   693.632   688.007   682.427   676.707   671.841   668.422   667.233   669.535   673.992   678.460   683.503   689.728   695.361   696.001   689.200   682.000   678.978   682.730   689.997   695.197   699.643   703.581   704.157   700.183   696.068   691.796   686.324   681.174   675.245   671.766   674.639   683.052   688.134   681.817   671.280   662.811   656.847   653.212   651.331   652.917   658.751   667.673   679.562   689.942   697.689   705.220   710.540   711.877   711.524   709.626   706.104   702.246   696.462   690.238   682.661   674.477   670.898   674.437   681.495   689.919   697.965   704.569   706.573   705.757   707.819   711.304   713.422   715.583   717.167   717.062   716.147   714.955   712.659   710.335   706.119   701.408   698.860   704.379   709.662   712.181   710.219   707.099   703.867   701.225   700.626   702.785   706.264   708.361   709.154   708.806   706.848   704.323   702.051   700.036   697.680   695.095   692.492   689.585   685.967   682.001   679.084   677.449   675.848   674.298   675.478   676.893   678.363   680.511   684.843   689.330   690.886   690.944   690.955   691.154   691.243   691.200   690.891   689.948   688.231   685.889   683.820   682.826   683.420   684.015   685.404   686.768   687.882   688.447   688.923   689.389   689.558   686.819   683.518   679.284   671.077   665.296   660.745   656.759   655.020   655.128   654.830   651.476   645.968   644.967   650.411   656.976   661.753   661.295   658.189   657.492   659.681   663.196   667.424   670.681   671.795   672.532   672.516   671.743   671.060   670.314   668.381   665.193   661.741   658.677   655.856   652.918   650.241   648.432   648.141   649.830   653.046   656.937   660.380   662.123   662.564   661.413   659.550   656.409   653.521   651.898   652.423   654.334   656.474   656.707   654.198   651.759   648.984   644.698   640.866   638.872   638.258   637.880   637.605   637.674   637.954   638.178   638.933   642.062   646.563   649.229   651.462   651.849   650.585   646.838   639.684   637.215   637.302   640.049   645.289   652.628   659.393   660.871   661.565   662.276   663.103   663.319   663.334   663.596   663.924   664.214   664.478   664.787   665.172   665.555   665.743   665.839   666.472   667.467   668.944   669.989   670.901   671.400   671.520   670.951   670.382   670.475   670.806   670.754   669.916   668.563   667.046   666.318   666.558   665.337   663.375   661.476   659.815   658.858   659.206   661.120   663.513   664.867   665.070   664.634   663.708   661.997   660.002   658.305   657.514   659.096   660.635   661.983   663.517   665.056
710.956   704.130   698.434   694.298   695.980   699.692   703.775   708.124   712.706   716.460   719.129   718.302   713.938   707.061   698.502   691.805   693.135   698.369   702.184   706.375   710.835   715.167   719.281   724.489   730.149   735.815   740.949   739.682   733.528   725.953   716.667   709.450   702.838   695.578   689.522   685.381   681.288   675.144   670.194   667.579   668.390   673.431   679.896   684.318   688.242   693.484   697.416   696.518   689.655   682.185   680.767   685.736   692.454   697.889   703.254   708.043   709.560   706.618   704.181   699.018   691.938   686.533   681.997   675.977   675.394   680.672   688.815   684.895   674.529   667.047   661.685   657.879   655.669   655.944   658.527   663.099   673.511   685.739   695.001   703.049   710.198   712.124   712.306   710.598   707.346   703.351   697.733   691.830   683.420   676.482   672.534   675.251   682.385   690.683   698.334   705.011   707.639   706.867   708.188   711.407   713.721   716.017   717.877   718.217   717.287   715.447   712.807   710.487   706.588   702.302   700.445   706.762   711.467   712.213   709.318   705.997   703.344   702.448   704.613   708.107   710.320   710.937   710.663   709.395   706.877   703.744   701.040   698.768   696.205   693.835   691.496   688.886   685.463   681.848   679.041   677.439   675.917   674.910   676.167   677.695   679.264   683.099   688.352   691.685   692.518   692.123   691.611   691.226   690.847   690.609   690.129   688.642   686.483   684.926   684.935   686.243   687.310   688.232   689.565   690.769   690.995   690.971   690.475   689.820   689.289   686.480   682.973   677.097   668.923   662.163   656.262   651.020   648.576   648.844   650.614   649.967   646.286   645.702   650.381   657.045   662.291   661.153   658.996   661.021   664.230   668.036   670.942   671.929   672.945   673.502   672.903   671.855   670.773   669.389   666.763   663.551   660.414   657.778   655.299   652.585   650.052   648.966   650.277   653.566   657.179   659.967   662.073   663.208   662.849   661.131   659.032   655.873   653.692   654.034   655.741   657.286   658.456   656.193   653.325   650.453   646.538   642.155   639.158   638.514   639.596   640.186   640.545   640.683   640.549   639.872   640.134   644.367   649.872   652.100   652.644   651.963   649.250   643.715   638.942   637.080   638.216   641.637   647.623   654.877   659.180   660.669   661.358   662.158   663.093   663.805   664.308   664.787   665.240   665.652   666.023   666.435   666.888   667.358   667.663   667.461   667.146   667.268   668.262   669.085   669.937   671.758   673.315   673.028   672.375   671.985   671.854   671.610   670.616   669.178   667.823   667.980   668.743   668.172   665.892   663.015   660.720   660.030   661.187   663.248   665.381   667.199   668.039   667.856   666.906   664.507   661.461   659.002   657.739   658.882   660.390   661.801   663.395   664.940
710.661   702.768   697.316   695.516   698.994   706.678   710.643   714.386   718.803   722.355   724.014   721.828   716.759   709.949   700.897   692.824   693.827   700.727   705.597   709.053   713.080   717.413   720.846   724.651   729.575   735.255   740.495   739.165   730.163   720.503   714.497   708.646   701.820   691.929   686.411   682.334   677.230   671.522   668.518   668.348   670.531   676.728   684.464   689.864   693.841   697.922   700.144   697.985   691.804   685.202   681.682   686.054   691.167   697.738   703.956   709.574   713.121   711.825   710.057   706.094   701.020   692.679   686.859   682.352   678.208   679.830   689.476   688.464   679.303   672.495   667.463   663.447   661.125   663.674   669.825   669.967   673.122   684.641   693.589   700.830   709.093   712.274   713.762   711.586   708.779   704.233   697.852   691.569   682.531   675.858   674.123   677.353   685.610   693.345   700.066   706.582   709.219   708.030   708.505   711.726   714.422   716.640   718.569   719.291   718.366   716.261   713.570   710.838   707.249   703.198   704.356   709.773   713.387   711.818   708.315   704.946   705.120   707.076   709.572   711.320   712.125   712.093   711.233   709.491   706.765   703.460   700.414   697.978   695.662   693.351   690.964   688.147   684.695   681.411   679.131   677.685   676.241   675.538   676.742   678.261   679.963   685.343   690.121   693.257   694.087   693.462   692.445   691.391   690.643   690.210   688.991   686.778   685.801   686.863   688.042   689.488   690.849   691.870   692.709   693.224   691.660   689.974   687.465   686.095   686.127   685.284   682.671   676.941   668.490   660.873   655.110   650.173   646.832   646.003   646.752   646.575   646.015   647.928   652.172   657.634   662.808   663.088   661.475   665.457   669.427   671.346   672.661   673.713   674.488   673.596   672.083   670.878   669.688   667.476   664.611   661.575   659.000   656.729   654.336   651.905   649.849   650.145   653.465   657.836   660.978   662.533   663.840   664.159   662.384   660.391   657.754   655.058   655.194   657.102   658.944   660.111   658.966   655.808   652.524   648.898   644.599   640.591   638.396   639.035   641.986   643.905   645.901   646.431   645.535   642.935   642.231   647.619   652.236   653.662   652.947   650.696   646.605   639.636   638.365   637.171   638.756   642.211   648.205   653.836   657.274   659.591   660.665   661.676   662.659   663.620   664.522   665.334   666.107   666.832   667.438   667.961   668.468   668.967   669.422   669.477   668.822   668.116   668.066   668.621   669.476   671.164   673.492   674.405   674.021   673.637   673.243   672.388   671.196   669.855   669.156   669.504   670.235   670.049   667.591   664.091   661.599   662.057   665.140   667.393   667.778   668.828   670.409   670.619   669.547   666.682   662.840   659.494   658.322   658.742   660.132   661.643   663.156   664.655
710.470   702.823   697.335   697.280   702.885   710.926   716.070   720.754   725.246   728.169   727.728   723.689   717.436   710.261   701.801   693.906   694.471   701.988   708.381   712.732   716.729   720.458   723.193   726.046   729.886   735.444   740.234   736.020   725.550   717.760   712.517   706.582   700.224   691.168   684.122   678.562   672.928   669.986   669.718   671.470   673.114   676.959   684.268   691.301   696.556   700.497   700.870   697.436   693.038   688.264   684.545   684.705   688.812   694.487   701.161   707.521   712.744   715.882   714.371   711.108   706.553   700.810   694.647   688.189   683.139   681.184   687.730   690.978   685.302   677.973   673.116   670.633   670.576   673.218   675.936   673.905   674.356   683.947   692.836   699.685   707.181   711.806   714.334   712.917   710.236   704.440   697.478   689.987   681.673   675.687   675.678   680.348   688.112   695.256   702.384   708.471   710.676   709.679   709.383   711.741   714.662   717.420   719.622   720.227   719.425   717.263   714.242   710.935   707.385   704.163   707.822   712.109   714.406   711.213   707.983   707.187   708.738   710.728   712.302   713.499   713.056   711.628   709.802   707.061   703.974   701.267   699.071   697.322   695.219   693.061   690.795   687.950   684.336   680.880   678.982   677.693   676.479   676.308   677.477   678.782   681.236   686.994   691.702   694.853   694.906   693.622   692.499   691.563   690.719   689.589   688.274   687.802   688.508   689.885   691.541   692.773   693.893   694.072   692.725   691.103   687.782   683.807   681.220   680.001   681.515   682.376   681.010   676.713   669.503   661.128   654.953   650.068   647.295   647.321   647.336   647.170   648.855   651.920   654.569   657.753   663.444   667.535   668.368   670.494   672.317   673.580   674.614   675.654   674.246   672.728   671.267   669.636   667.702   665.500   662.792   660.211   657.955   655.758   653.516   651.319   650.650   652.340   656.014   659.971   662.710   664.676   665.311   663.664   661.596   659.320   656.706   656.297   658.172   659.801   660.626   660.622   658.919   655.584   652.144   648.228   643.810   640.334   638.549   638.838   639.918   643.241   647.978   650.714   650.420   646.659   645.829   651.105   653.964   654.325   651.310   647.011   641.052   638.907   637.778   637.720   639.042   641.482   646.923   651.112   654.214   657.121   659.749   661.045   662.008   662.970   663.925   664.815   665.619   666.432   667.317   668.193   668.908   669.548   670.352   670.802   670.181   669.395   669.185   669.311   669.941   671.486   673.840   675.217   674.833   674.449   673.982   672.840   671.671   670.789   670.575   670.931   671.124   669.826   666.914   663.446   662.891   665.646   668.770   669.901   669.653   670.505   671.430   671.694   670.795   669.159   664.911   660.282   658.852   658.731   659.809   661.162   662.518   663.790
