ncols  168
nrows  56
xllcorner      10290
yllcorner     -11640
cellsize     30.000
NODATA_value     0.000
710.719   701.093   680.624   674.626   698.408   704.685   713.127   715.746   712.473   700.655   707.976   708.158   698.667   704.835   706.687   701.326   693.609   682.075   675.759   675.922   681.240   689.937   691.676   690.938   684.685   680.818   683.946   686.717   684.257   670.853   663.505   652.372   650.657   661.569   655.971   667.816   671.529   670.278   662.961   654.635   647.887   653.748   661.791   656.682   650.003   656.200   650.848   640.865   637.089   637.229   642.682   650.716   639.839   638.549   657.568   662.026   662.147   662.723   663.583   665.346   669.623   670.294   668.655   669.690   666.582   662.935   658.921   660.296   662.002   659.524   657.587   662.169   666.785   670.555   673.430   676.382   678.813   682.377   688.780   690.755   694.914   692.257   688.823   690.943   696.381   706.682   712.574   718.300   724.816   734.886   754.066   770.781   787.635   801.920   795.760   793.404   774.866   765.191   751.117   743.760   732.064   730.389   721.992   733.957   750.058   756.324   766.827   781.444   798.696   820.274   833.803   825.238   814.355   815.596   819.474   811.083   818.064   827.187   839.041   850.628   875.148   892.852   900.308   892.609   887.969   883.742   879.066   875.783   880.487   877.905   872.628   878.199   882.330   882.521   881.547   880.460   869.594   865.237   865.858   866.165   864.201   857.797   849.592   848.061   848.500   849.726   853.805   859.612   854.310   862.297   859.359   861.912   870.872   867.632   860.852   858.088   857.881   859.529   860.650   869.326   862.465   861.114   851.643   850.585   848.874   841.312   829.932   830.322
713.762   704.233   682.531   677.353   700.066   708.030   714.422   719.291   713.570   703.198   713.387   704.946   709.572   712.093   706.765   697.978   690.964   681.411   676.241   678.261   690.121   693.462   690.643   686.778   688.042   691.870   691.660   686.095   682.671   660.873   650.657   650.657   652.172   663.088   669.427   673.713   672.083   667.476   659.000   651.905   653.465   662.533   662.384   655.058   658.944   655.808   644.599   639.035   645.901   642.935   652.236   650.696   638.549   642.211   657.274   661.676   664.522   666.832   668.468   669.477   668.066   671.164   674.021   672.388   669.156   670.049   661.599   667.393   670.409   666.682   658.322   661.643   666.152   670.270   672.630   674.417   677.786   681.956   685.145   688.112   687.794   685.046   688.453   692.338   696.408   700.497   707.481   713.832   724.007   741.582   759.704   778.770   789.364   777.911   767.495   768.749   759.727   748.956   738.668   734.851   727.308   725.992   721.207   734.099   744.264   754.095   766.504   779.544   788.252   799.456   809.058   819.882   832.219   838.856   833.316   831.673   838.886   843.195   848.651   869.166   887.990   897.697   900.342   890.325   884.762   880.728   878.812   879.389   885.354   879.544   881.526   883.587   885.250   881.635   873.855   877.521   873.556   862.982   857.170   855.928   853.550   850.698   848.930   848.367   849.233   857.140   860.400   862.178   859.490   868.120   871.339   872.109   869.316   862.441   860.632   864.162   863.123   866.353   871.251   869.412   858.214   852.196   849.295   843.384   841.367   836.831   830.267   834.540
713.686   707.550   682.750   682.702   703.460   713.400   716.016   721.758   715.759   709.595   714.325   711.920   715.099   706.484   695.467   690.526   688.562   679.705   677.059   679.169   694.812   695.694   691.301   693.150   694.962   688.179   677.505   664.836   671.795   663.230   650.657   657.722   661.704   673.662   677.319   674.115   669.294   665.740   657.191   658.067   662.298   666.482   659.411   660.636   661.831   655.056   642.898   639.035   646.257   650.698   656.010   640.572   638.718   648.680   657.179   660.013   663.100   665.967   668.812   672.575   672.257   673.646   676.457   674.690   673.550   668.542   666.230   671.182   673.824   670.786   661.120   659.904   662.343   665.582   670.353   672.914   676.707   680.062   682.272   685.875   682.464   686.861   692.253   694.971   697.157   698.684   700.870   708.276   718.025   734.642   753.133   766.937   770.430   764.057   748.570   745.982   744.487   738.004   732.737   723.485   720.435   721.207   724.684   734.941   750.675   758.491   764.440   767.838   772.000   786.144   804.253   823.183   842.140   852.278   845.839   846.705   863.407   869.284   866.033   877.546   899.341   903.182   900.716   888.466   888.470   887.584   885.721   888.964   889.779   889.964   890.464   889.589   879.342   877.271   866.139   865.727   871.329   869.576   858.802   853.726   849.786   849.299   848.838   849.647   849.379   850.173   859.598   864.755   868.190   873.477   878.631   875.017   867.854   866.769   867.455   873.892   873.212   872.262   866.518   859.898   854.357   846.148   842.242   838.987   836.734   832.657   832.167   834.292
711.422   716.032   695.627   682.702   698.468   716.667   716.711   723.145   719.214   717.120   716.956   720.476   708.567   691.319   687.923   685.330   681.996   679.451   678.970   685.000   701.370   696.318   700.168   700.217   683.746   665.510   660.670   659.003   660.309   650.657   650.992   671.781   673.307   681.567   677.339   676.712   675.666   669.046   657.838   670.376   670.232   666.018   661.923   665.744   660.894   648.919   639.640   639.552   649.092   656.523   659.619   640.263   639.745   645.622   660.232   664.093   664.406   666.311   669.164   673.294   677.429   676.920   678.887   677.742   674.589   669.248   666.230   670.678   675.686   674.697   671.578   668.459   668.447   666.796   667.728   671.159   673.503   676.307   679.595   681.896   681.856   688.305   689.743   693.270   695.027   695.158   696.588   700.634   710.373   723.455   733.924   743.502   742.314   732.203   728.359   727.748   732.514   728.299   725.742   715.378   711.805   713.577   730.914   736.365   749.006   751.621   753.086   761.685   782.846   797.701   810.242   823.607   840.566   853.014   859.497   858.300   872.338   889.246   889.786   898.377   904.075   904.242   901.145   896.352   895.597   895.726   894.066   892.459   891.316   890.451   888.417   880.790   874.787   865.755   861.295   858.775   859.128   859.114   857.925   855.692   852.527   849.801   849.357   854.555   855.841   854.841   855.005   860.468   865.907   870.177   877.407   879.488   875.936   873.213   874.526   879.848   871.917   872.229   867.051   856.558   848.140   843.662   839.378   837.165   835.091   835.292   835.192   836.336
717.215   720.488   699.022   685.407   694.437   716.639   722.841   723.486   722.263   722.827   723.566   711.873   694.019   688.260   688.509   688.040   687.907   688.710   694.946   704.918   700.863   702.346   702.214   695.660   687.949   664.705   669.514   660.374   655.882   662.254   670.556   676.352   682.348   683.836   682.293   679.652   671.742   661.044   663.407   672.493   671.856   665.559   667.731   661.623   651.517   639.750   646.104   652.477   652.070   662.229   662.070   647.145   658.248   645.924   653.029   668.918   667.861   670.003   670.369   672.829   678.115   680.592   681.181   679.789   676.037   671.295   667.568   673.826   678.339   680.502   678.048   678.311   678.742   671.186   667.258   669.174   670.561   675.960   679.439   678.058   680.283   685.646   690.769   691.844   691.451   691.437   693.022   700.202   706.578   713.160   720.283   717.858   712.568   709.150   710.769   712.066   721.806   720.629   716.508   709.989   712.432   720.262   729.485   734.249   739.482   748.647   758.943   771.121   777.762   781.242   796.621   803.527   820.042   835.432   854.741   857.899   864.734   880.930   893.557   897.589   900.972   902.578   900.886   899.096   895.670   889.660   887.004   884.169   884.665   882.724   878.558   873.234   865.750   859.281   857.676   856.304   855.203   854.213   852.992   851.460   850.097   849.533   849.644   856.732   862.442   866.583   862.332   863.325   865.883   869.239   876.819   880.468   881.794   882.729   881.657   868.585   863.229   865.161   866.582   857.914   849.251   844.220   840.247   838.043   837.458   839.192   838.361   838.698
720.604   720.463   694.262   690.496   698.226   714.953   729.509   726.022   729.090   729.550   723.997   704.882   693.993   689.078   694.549   697.438   706.282   707.396   712.089   706.416   707.189   703.099   690.249   679.099   678.185   665.640   672.974   669.375   677.818   680.591   684.953   685.012   687.763   686.581   680.041   669.262   668.059   669.133   667.756   674.691   670.629   668.606   670.210   660.648   644.442   639.898   651.746   660.599   656.907   667.047   662.713   654.362   660.303   645.924   653.959   667.648   671.464   672.694   672.873   673.031   676.056   680.238   682.271   681.505   678.485   676.933   668.500   672.231   678.071   682.773   682.343   681.950   682.392   674.713   668.330   670.779   673.190   673.632   673.955   677.526   677.526   682.684   685.335   686.235   685.943   685.501   685.683   689.982   700.901   705.248   706.157   703.646   699.944   698.234   700.253   705.852   713.748   714.398   711.392   709.775   719.297   725.968   732.220   737.223   742.597   747.238   753.324   762.314   765.649   780.555   779.084   784.367   803.024   823.136   839.482   838.439   851.163   865.284   875.160   886.498   899.788   902.102   897.876   890.755   886.323   879.557   877.980   875.461   874.230   870.872   869.018   865.498   860.255   859.339   859.322   858.581   857.944   857.033   854.579   851.916   851.612   850.276   850.013   853.206   856.858   862.234   872.842   874.960   871.783   872.915   871.893   869.654   875.528   880.800   875.686   864.934   858.133   857.992   858.299   854.278   846.900   841.465   839.141   838.223   839.169   844.670   842.328   840.575
720.721   720.502   696.791   701.272   720.172   718.259   732.754   730.746   733.578   731.221   722.971   706.017   695.054   689.593   701.484   706.540   715.483   716.070   713.083   711.650   710.286   694.338   675.861   669.803   669.348   670.305   675.791   681.540   695.091   695.594   684.866   691.089   691.056   682.902   675.961   680.757   680.582   670.591   673.797   675.922   670.712   674.080   668.850   664.299   661.102   648.667   646.621   663.019   661.179   670.389   662.694   658.501   661.402   649.985   646.123   661.215   671.093   674.268   676.007   675.962   676.000   678.023   682.339   685.087   683.301   682.913   672.496   671.404   677.182   682.907   687.286   686.789   683.703   679.682   673.861   671.328   671.598   671.916   675.280   679.973   681.746   678.857   679.548   680.429   680.752   685.872   687.870   687.005   687.304   694.882   697.748   693.341   692.832   696.587   697.020   698.439   705.251   708.181   709.775   714.753   722.026   726.234   730.826   734.798   740.333   744.316   750.302   755.887   764.959   771.606   771.066   783.823   794.755   813.622   825.848   830.963   838.579   852.315   870.596   889.824   901.695   901.294   893.804   885.647   880.174   880.394   878.642   876.504   870.861   868.666   867.198   866.660   866.428   871.292   870.961   867.773   862.057   858.599   855.001   854.377   856.762   860.254   855.166   857.965   865.321   868.994   869.257   877.855   879.500   869.918   865.542   864.587   872.837   867.030   865.205   866.500   857.674   852.778   851.946   848.526   844.364   839.747   838.979   839.892   845.069   854.818   851.863   846.132
722.341   720.852   701.157   707.192   728.303   728.984   735.701   737.721   731.827   723.928   717.854   706.193   700.096   699.087   709.046   710.992   721.065   720.570   716.621   708.496   697.365   685.342   673.205   682.252   685.925   686.614   687.433   691.705   701.373   692.056   690.651   694.915   686.688   680.545   689.007   684.359   675.513   674.290   680.147   676.836   677.404   676.054   672.666   667.584   660.204   648.471   650.974   667.297   665.274   670.745   661.888   662.217   663.118   664.000   648.829   652.286   667.364   673.266   677.330   680.024   679.786   678.105   683.099   687.771   688.443   685.856   679.839   672.440   679.312   684.167   690.033   688.629   685.007   681.701   682.171   677.939   680.672   676.981   673.677   678.998   684.847   688.777   683.626   686.139   690.333   692.198   694.637   695.582   692.041   689.706   690.103   692.832   701.683   708.780   706.299   701.481   699.704   705.824   712.800   722.774   726.190   730.693   735.993   739.067   738.096   743.481   747.363   748.821   753.625   757.576   767.047   776.118   787.927   791.947   804.086   818.138   832.624   848.104   866.891   885.298   901.630   902.040   900.639   896.255   890.050   892.281   893.013   888.834   880.760   872.644   872.111   876.451   876.547   874.725   870.239   861.565   858.153   856.840   857.176   857.732   859.769   869.396   858.003   861.923   867.631   875.131   872.623   879.175   871.663   864.888   859.605   860.539   868.105   860.433   858.416   861.517   858.674   850.341   847.728   845.605   841.864   840.281   839.633   844.566   853.365   860.073   849.106   842.846
724.769   722.147   703.273   720.675   738.132   739.822   740.680   731.078   715.632   709.021   706.901   702.927   704.911   708.767   715.841   717.000   724.081   720.764   713.956   706.128   701.074   682.578   676.475   691.819   703.377   694.364   700.718   699.620   699.883   691.134   699.122   691.294   684.476   692.918   689.428   680.353   681.565   684.587   682.543   681.284   679.987   674.299   668.575   654.247   648.471   649.433   658.720   670.742   668.038   670.942   661.991   662.182   669.150   671.349   663.208   648.829   667.886   676.605   678.414   682.094   681.890   678.872   683.164   689.944   691.182   689.913   683.866   674.743   682.105   687.816   691.665   689.395   685.760   684.543   686.636   681.880   687.116   684.376   680.023   675.724   681.191   686.158   690.809   691.152   693.967   695.749   698.430   701.394   700.425   699.840   701.244   702.662   705.856   711.383   713.091   711.502   705.541   705.940   714.345   713.369   714.160   724.372   733.262   736.404   740.586   739.976   738.856   742.188   742.620   753.027   759.371   766.890   765.607   762.201   787.694   808.678   827.936   846.765   861.909   883.610   897.763   901.627   902.601   902.445   902.011   900.745   894.284   884.092   878.420   877.043   880.738   888.658   878.918   871.460   864.772   860.071   862.394   860.763   858.799   866.559   867.722   873.055   865.068   872.839   877.177   877.581   869.049   870.758   868.585   862.436   858.614   859.589   858.672   857.128   855.755   860.795   859.144   850.974   846.887   844.726   844.092   842.911   842.291   846.722   854.569   857.015   847.065   841.160
736.126   724.037   709.791   728.980   742.963   736.804   723.266   715.368   709.325   707.580   707.321   706.112   708.788   716.908   720.058   725.558   726.236   718.466   703.958   686.128   684.057   679.859   679.453   700.680   709.884   696.879   707.203   708.096   696.830   701.189   697.931   688.143   695.991   694.314   689.153   690.962   690.675   688.066   684.580   683.019   679.932   667.999   650.874   650.874   657.632   666.771   671.311   673.364   670.699   670.108   663.623   670.465   670.368   672.961   658.541   651.892   670.507   680.962   683.040   684.641   685.959   682.634   682.941   689.010   692.169   692.596   687.315   675.896   681.878   689.286   694.083   689.808   686.341   687.967   690.432   687.302   688.667   692.664   689.191   682.663   678.403   688.313   688.535   691.643   694.516   697.401   699.044   701.830   705.499   707.111   708.689   707.637   710.417   711.885   716.206   718.769   717.880   707.343   705.940   710.140   710.140   717.346   725.359   725.967   723.442   723.442   729.958   733.607   735.077   738.242   741.970   748.068   754.869   765.183   779.583   810.191   831.475   848.219   866.221   883.354   883.606   886.016   895.028   900.544   901.670   901.804   898.049   893.186   887.187   886.853   889.742   890.106   882.543   874.461   866.488   872.986   873.223   862.991   865.793   869.048   876.825   880.395   876.523   872.917   875.921   872.702   861.678   860.894   859.973   858.526   857.106   856.613   855.518   854.340   851.853   856.826   857.680   849.220   846.972   847.842   848.345   847.983   848.938   850.689   856.688   849.390   846.217   841.933
745.241   724.711   717.399   739.377   738.237   719.394   715.630   713.618   713.182   714.141   709.506   713.881   722.267   725.173   730.342   732.625   724.118   716.380   700.630   682.309   682.309   679.453   687.778   709.264   710.049   703.910   711.974   706.151   698.934   704.609   692.327   696.964   701.895   696.012   694.701   695.091   691.285   681.310   674.948   677.865   677.368   655.455   654.631   663.847   668.919   675.867   678.766   675.774   671.778   668.053   668.770   673.118   670.983   675.710   656.021   651.892   659.474   672.822   682.112   686.992   689.616   689.230   689.762   685.829   691.645   694.265   686.859   676.717   682.891   689.088   694.430   691.940   688.831   691.001   694.680   694.397   687.342   695.050   693.469   687.305   679.671   684.016   691.734   692.660   695.048   696.347   697.115   699.952   703.851   708.626   710.169   710.400   713.157   713.580   715.987   720.107   722.294   721.389   720.927   722.138   720.542   710.140   710.490   717.314   727.614   737.226   741.459   743.070   743.239   753.039   761.037   764.373   769.196   789.615   797.240   802.511   826.873   847.942   866.400   869.018   860.484   865.293   878.058   889.425   893.470   899.432   892.301   891.640   893.584   891.410   890.636   887.181   878.198   874.719   876.642   881.059   873.399   870.435   873.597   877.504   880.209   881.721   876.300   868.066   867.087   865.528   858.652   857.170   857.461   856.613   856.613   857.443   857.552   854.585   849.868   849.758   849.563   848.827   847.753   849.062   853.662   855.172   860.371   860.497   857.123   847.289   843.752   840.930
750.661   730.842   719.827   738.529   731.473   717.442   717.464   720.199   723.808   718.035   717.683   728.250   734.807   732.661   738.025   730.690   714.461   697.452   692.748   685.886   690.919   683.259   694.150   714.293   711.112   709.990   713.331   702.804   708.035   703.197   697.150   703.087   704.456   701.771   698.769   692.614   685.146   670.417   662.079   659.239   660.210   655.592   669.830   665.606   676.100   681.911   683.378   680.078   672.660   672.486   670.209   677.546   676.407   678.686   673.454   663.148   651.892   670.592   681.880   686.431   691.247   693.229   693.522   690.526   692.515   696.463   685.430   679.549   682.990   688.699   694.268   694.963   690.520   693.507   697.462   700.560   689.518   697.730   698.005   692.459   692.078   686.659   686.426   691.279   691.866   693.537   697.416   698.311   701.286   704.744   708.301   709.662   713.637   717.138   716.369   718.994   721.855   724.355   723.483   724.286   727.004   726.789   717.981   716.862   731.220   738.533   742.660   747.586   754.892   764.420   771.720   780.124   785.084   794.295   816.437   818.280   831.262   853.781   855.662   851.578   842.395   846.440   860.135   872.186   880.167   884.402   880.915   884.091   888.439   890.716   887.366   884.509   885.223   884.462   883.863   882.359   879.509   879.531   880.079   878.839   875.781   873.540   867.757   863.875   861.618   860.417   857.950   857.184   856.613   858.389   856.613   856.613   858.670   855.091   849.726   849.117   848.738   848.402   848.621   850.034   857.964   860.118   856.466   851.228   849.007   844.954   840.983   838.784
746.969   731.507   732.498   741.630   724.510   720.185   725.936   730.501   720.367   723.019   729.796   741.548   740.610   742.408   735.498   720.677   702.393   692.504   692.504   687.972   698.548   688.222   701.471   720.010   713.439   714.855   710.459   707.640   711.601   701.019   704.958   709.554   707.771   701.215   693.896   685.946   676.517   664.942   660.526   662.209   658.791   660.837   674.184   667.332   682.380   687.784   686.777   680.724   675.637   676.720   676.631   678.032   680.845   679.666   680.979   673.758   654.687   670.743   682.330   688.594   693.480   697.041   697.156   692.704   696.173   700.256   689.832   681.778   681.231   690.640   699.693   698.598   693.490   696.313   700.873   701.962   693.241   700.539   701.852   697.186   698.215   703.041   690.461   686.426   687.663   693.423   700.317   699.729   702.370   706.028   709.791   713.315   714.105   719.731   719.612   718.548   721.395   725.052   726.038   726.547   728.243   731.357   731.492   719.239   719.905   736.698   743.122   748.669   759.953   767.115   775.495   784.258   799.168   816.136   828.246   840.578   847.471   853.758   841.810   833.620   827.520   834.403   853.630   856.672   870.392   866.794   862.729   873.234   882.773   880.128   876.959   874.220   874.567   873.794   876.066   880.497   881.106   879.955   879.816   877.031   871.322   866.699   862.881   861.618   862.892   861.731   859.790   865.736   867.743   859.322   856.613   856.613   859.801   856.475   850.208   849.454   848.911   849.204   850.183   850.579   859.487   858.324   848.634   846.466   844.514   841.895   839.750   838.903
735.783   742.579   747.919   731.479   724.166   726.349   733.272   730.448   726.825   739.713   744.347   747.760   746.594   738.861   726.927   714.447   699.329   696.042   713.274   711.281   710.688   695.398   711.981   722.275   715.129   720.382   715.334   713.560   711.733   706.601   712.902   709.221   701.981   694.301   687.688   677.375   666.149   668.400   669.518   676.905   664.634   677.513   681.579   674.607   684.796   691.353   690.151   678.599   683.371   681.439   682.185   681.130   685.331   681.310   673.566   661.426   656.361   665.748   680.431   688.583   692.909   698.918   700.494   697.414   697.611   702.404   697.144   688.167   683.216   691.392   700.453   702.645   696.296   696.502   701.491   701.580   695.208   705.444   705.849   700.250   699.751   707.963   710.075   697.595   693.348   690.790   696.814   703.021   705.410   707.502   710.680   717.433   716.412   717.811   722.975   721.639   721.920   725.576   728.309   728.526   730.338   732.394   734.300   731.657   719.239   734.219   749.133   751.435   763.693   769.855   777.121   785.013   795.420   814.038   835.339   850.848   851.016   846.318   832.052   819.094   813.846   833.706   839.370   845.136   854.229   850.547   839.525   858.503   879.161   871.463   850.842   856.744   860.015   854.364   864.581   878.794   873.255   868.415   875.362   877.470   869.283   866.202   864.835   866.255   872.147   873.498   866.641   871.808   872.627   859.449   857.248   856.613   859.870   861.437   859.962   850.058   849.355   849.775   857.350   860.068   858.899   852.450   849.010   846.571   844.293   842.115   841.090   840.485
743.742   752.174   736.988   728.339   727.916   734.225   737.033   732.196   736.709   750.141   752.744   749.209   741.835   727.176   710.224   698.877   698.358   697.989   713.972   725.080   711.980   705.370   721.684   719.209   721.510   723.263   716.653   720.418   716.292   714.560   712.189   703.839   694.656   687.628   679.167   667.603   669.864   671.156   673.155   680.151   668.749   686.607   688.215   680.251   690.621   696.756   688.446   682.286   690.012   687.534   686.215   687.335   683.049   675.849   667.942   664.106   672.300   660.945   666.514   679.008   688.752   695.418   700.119   702.634   701.022   702.896   702.815   695.229   686.204   690.328   698.183   706.551   698.226   696.572   701.540   701.938   698.450   709.140   707.139   701.395   700.444   709.347   713.096   709.799   699.511   695.667   695.811   700.246   704.305   708.156   718.069   720.757   719.801   718.537   723.142   726.050   724.216   726.470   729.670   730.949   732.938   734.584   736.225   734.020   724.807   730.500   749.916   756.176   762.133   770.119   777.353   790.210   803.678   824.539   839.171   836.909   828.739   826.995   823.117   806.620   815.043   827.823   829.221   831.823   833.364   829.811   834.146   857.399   871.847   859.639   840.371   836.519   838.675   844.392   866.418   860.057   854.883   866.926   875.608   879.181   874.510   868.673   869.713   873.919   876.566   881.158   877.520   880.332   876.549   867.093   858.940   858.039   861.582   862.745   857.673   849.861   849.779   852.774   859.554   853.383   849.513   848.951   848.225   846.741   844.485   843.701   843.604   845.164
757.591   746.351   736.058   731.412   738.217   745.669   738.403   749.880   754.178   756.764   751.130   738.401   725.251   713.691   699.310   705.499   710.049   711.899   723.537   728.270   713.362   714.351   729.283   722.208   729.198   723.823   722.187   724.080   720.396   718.291   706.724   693.195   679.886   675.154   671.379   670.687   676.354   672.921   679.957   687.123   674.290   684.610   693.380   688.856   693.276   696.655   685.771   692.372   694.075   690.911   690.656   690.509   685.320   680.840   667.274   671.502   681.395   671.002   667.784   670.975   681.575   689.682   694.497   699.949   706.193   707.609   705.843   699.527   690.415   686.323   695.366   708.165   701.963   697.771   701.059   705.753   698.450   700.972   706.159   707.358   703.180   710.466   714.626   713.650   708.705   703.469   695.667   703.488   705.204   706.825   716.543   721.406   722.703   722.490   726.215   729.523   728.760   726.726   730.219   733.525   735.482   737.117   738.503   737.052   724.807   731.823   740.585   752.628   759.626   770.807   781.819   791.957   811.200   825.016   822.656   817.843   811.921   810.712   808.453   797.589   808.892   820.654   822.118   822.738   821.382   815.917   837.533   854.557   856.404   842.984   832.276   821.639   828.408   844.442   845.013   842.509   856.157   864.930   878.220   882.488   876.354   871.179   873.854   881.204   883.059   880.971   878.258   872.406   867.561   860.032   858.632   859.512   864.457   862.313   852.740   849.869   858.387   852.830   849.641   849.253   848.784   847.985   846.967   845.817   845.356   845.792   846.016   847.480
768.281   751.510   741.843   734.237   745.794   751.987   749.790   760.266   760.414   750.804   739.535   722.224   709.064   700.489   710.156   710.778   722.048   721.054   737.592   728.733   714.746   724.898   734.256   733.168   732.719   731.190   727.887   722.072   720.793   714.372   700.947   681.143   675.162   677.544   675.488   682.264   674.484   687.671   691.927   693.983   682.458   687.081   699.712   693.347   695.997   693.470   693.080   703.421   697.402   698.101   696.239   688.585   677.256   673.123   667.274   667.449   681.992   685.007   680.655   672.226   673.880   679.999   685.428   692.967   701.313   707.580   708.768   703.698   699.595   694.724   689.340   697.481   711.088   700.729   700.679   707.460   708.416   700.045   703.350   712.173   706.331   707.932   712.385   717.275   716.060   707.044   697.021   702.708   708.896   711.580   711.952   715.047   717.358   720.029   724.996   730.481   732.667   729.571   730.160   734.192   737.014   739.500   740.771   741.444   726.405   735.160   747.298   753.228   762.401   773.322   784.617   801.474   814.804   806.799   798.230   792.234   791.820   798.108   798.005   790.777   805.572   813.217   814.599   813.205   807.748   819.570   828.700   839.438   841.070   829.696   821.090   815.794   821.199   830.453   838.950   838.950   852.951   863.796   879.935   884.235   877.955   879.978   886.173   880.281   873.600   870.054   868.844   866.644   863.536   861.204   859.573   864.783   866.211   858.071   849.925   854.022   859.972   849.585   849.204   849.098   848.835   848.485   847.324   846.315   846.323   847.676   849.272   850.089
774.110   762.160   746.690   736.315   745.213   761.911   757.824   761.580   746.339   730.085   717.443   706.981   706.287   715.499   727.714   716.093   729.898   730.087   742.824   729.167   723.319   737.240   740.307   735.650   730.143   722.772   715.731   710.166   709.901   710.904   694.611   679.130   686.684   700.172   691.123   680.427   685.744   693.942   706.171   693.806   682.458   696.722   707.570   701.931   700.659   694.883   697.449   710.042   705.658   699.010   687.743   672.643   669.113   667.274   670.203   673.773   676.987   687.131   688.676   690.031   676.907   674.351   688.558   690.564   695.344   701.555   711.810   707.978   704.358   701.222   697.974   690.483   708.286   711.493   704.523   707.681   711.928   703.725   710.946   710.814   710.827   714.111   711.816   717.336   722.027   711.831   698.975   700.594   708.590   713.283   717.784   721.267   722.523   723.892   730.292   733.328   737.270   735.644   732.977   737.272   740.337   741.726   744.274   741.891   727.724   736.289   752.446   757.432   762.570   773.575   792.844   804.676   802.314   787.693   776.884   777.080   779.269   782.730   784.500   787.382   795.065   806.243   800.251   797.638   810.138   816.203   817.133   819.467   821.284   816.640   810.869   822.998   844.119   854.993   859.040   854.705   848.843   862.811   877.164   889.907   888.083   886.479   878.046   874.346   870.709   869.343   868.850   867.891   867.765   865.993   867.887   871.796   862.868   857.793   859.906   864.560   852.554   849.597   850.057   851.375   849.711   849.461   848.119   846.962   847.306   848.940   851.763   858.756
770.255   757.499   747.358   738.313   746.513   762.953   762.602   752.496   737.500   714.265   713.643   719.004   710.247   728.917   736.785   724.452   743.050   743.549   745.949   730.314   732.755   743.006   738.154   722.800   709.288   703.744   694.326   689.256   688.560   694.294   687.335   683.427   694.943   701.612   690.662   682.772   698.035   698.655   709.934   691.174   689.947   709.111   714.593   704.759   705.362   703.357   702.169   707.985   696.344   683.075   671.968   670.042   688.273   687.123   690.507   670.370   674.876   685.060   693.033   695.056   689.647   683.698   684.931   694.223   695.729   700.884   707.942   714.985   710.777   707.180   702.861   693.808   703.855   714.710   708.467   709.389   714.192   706.127   714.294   711.774   717.255   721.138   717.631   718.369   725.345   714.043   700.368   700.183   705.177   711.925   715.972   718.899   721.998   722.822   725.901   728.941   734.137   740.298   739.111   738.731   742.474   744.716   746.406   742.503   728.978   743.276   753.667   759.988   772.584   783.717   792.907   784.896   778.911   774.755   769.370   773.563   779.083   779.083   779.083   781.076   787.042   789.820   791.320   794.962   797.562   801.958   802.759   803.291   805.252   807.797   818.825   830.212   849.440   861.450   869.433   865.469   860.269   863.927   877.731   890.795   893.138   885.980   878.242   878.733   875.986   874.633   875.976   872.890   873.224   873.630   877.204   872.502   870.502   869.864   870.935   859.567   849.810   849.794   856.062   861.626   856.700   856.393   849.268   847.911   847.635   849.204   855.455   863.838
769.380   759.590   746.640   739.575   751.335   761.196   748.075   736.940   721.300   714.714   724.641   722.412   722.183   730.812   743.200   732.191   748.484   752.738   743.546   736.249   744.743   743.914   722.631   703.923   698.943   696.870   697.710   700.492   688.444   685.665   683.894   688.998   705.312   697.232   687.975   695.051   707.192   705.921   711.058   691.306   695.704   714.411   716.831   705.586   710.119   712.031   712.493   696.351   689.757   678.710   680.708   682.687   695.843   700.320   680.555   674.753   679.594   684.345   693.576   699.231   694.281   688.881   684.465   699.153   701.266   700.588   705.514   712.744   719.272   712.140   710.072   700.801   698.868   713.273   711.720   711.741   717.018   709.015   717.156   715.637   723.448   724.093   722.350   722.918   730.297   711.619   702.087   703.460   705.300   709.778   711.048   714.398   718.084   718.727   721.728   725.608   728.189   731.040   737.813   743.892   745.971   747.302   748.766   748.635   731.371   746.641   754.319   759.783   771.351   790.513   778.751   772.307   769.370   769.370   774.721   789.624   792.744   791.674   784.322   783.753   788.332   789.186   789.861   795.745   794.962   794.962   802.132   811.039   816.057   822.966   833.724   839.963   849.436   855.905   872.132   879.904   871.455   870.505   884.695   894.246   896.034   890.265   886.387   888.044   886.021   886.429   886.060   883.590   882.454   881.806   878.458   875.470   872.733   870.860   861.245   850.595   851.589   855.749   864.055   868.841   865.483   860.271   850.489   848.357   847.839   848.844   850.748   858.910
763.653   752.728   745.612   743.132   759.167   747.266   730.235   720.716   720.716   723.663   738.647   724.100   731.178   742.622   750.004   743.604   743.904   756.885   747.149   751.216   749.891   736.492   712.486   703.205   713.814   717.360   717.175   697.164   697.641   695.693   693.862   706.368   710.785   697.804   690.921   710.102   717.141   712.787   710.373   695.049   707.823   718.984   712.011   715.948   715.070   716.703   701.882   683.908   679.016   681.827   692.602   700.424   701.927   700.655   676.257   684.882   685.242   684.922   695.060   703.491   697.075   690.411   687.606   701.087   706.185   708.411   704.594   711.008   722.260   717.896   714.959   700.722   703.068   714.739   716.070   716.655   720.094   712.972   720.600   718.034   727.267   731.209   732.348   732.759   727.463   707.547   711.187   707.147   711.952   708.745   710.166   714.639   717.475   720.887   725.515   730.554   733.163   733.536   734.364   738.486   743.315   748.197   751.490   752.530   738.857   743.670   759.023   762.603   780.140   784.297   766.889   762.949   778.881   783.265   784.820   791.498   798.337   797.905   793.097   796.052   795.502   800.741   806.550   811.569   815.005   808.435   799.034   809.188   818.077   828.445   835.822   847.258   852.625   857.598   867.674   886.629   891.927   892.197   897.127   902.676   893.148   892.701   891.784   890.923   890.444   890.141   879.959   877.629   878.632   878.659   869.010   866.841   861.143   859.889   858.089   852.034   855.121   859.551   870.087   865.443   852.659   849.541   848.922   848.295   848.518   848.837   850.321   859.450
756.694   752.019   748.118   753.428   747.981   729.363   728.733   733.794   741.505   732.843   738.751   727.646   742.665   757.278   762.031   758.665   747.869   761.240   753.468   740.381   728.730   715.746   707.513   707.674   723.292   717.514   709.587   697.164   708.675   714.444   710.647   721.035   713.044   700.656   690.921   712.733   721.373   718.746   711.283   699.452   716.157   725.312   715.348   720.130   723.690   705.835   688.659   690.610   686.217   694.191   704.128   703.263   698.745   692.100   676.257   687.914   691.786   688.174   694.877   706.852   699.025   691.273   689.902   700.339   706.067   712.040   706.654   713.693   724.819   724.308   720.707   704.543   704.413   717.673   720.169   724.278   725.512   714.573   723.345   720.501   728.872   734.699   739.273   734.757   720.555   707.547   710.474   719.463   716.950   711.894   715.770   722.249   722.450   724.233   729.869   735.165   740.854   739.283   738.772   738.791   741.973   747.536   752.884   754.639   740.416   746.715   760.703   768.559   781.864   768.473   762.953   762.463   783.095   789.375   792.022   795.296   799.684   804.574   804.762   809.424   811.748   807.310   804.975   807.279   813.156   823.011   815.763   804.151   817.342   828.643   837.186   851.494   858.544   873.678   883.541   885.561   890.130   892.115   898.038   899.109   886.416   882.725   886.033   879.814   878.674   883.569   874.447   868.562   874.452   869.147   861.615   858.636   857.197   856.374   855.836   855.456   859.025   868.510   872.938   857.401   849.612   849.032   849.272   848.887   849.883   850.533   851.394   855.471
754.840   757.652   761.217   742.135   733.083   735.412   746.910   748.675   753.245   743.699   741.699   732.454   746.397   762.258   772.185   765.879   753.913   762.324   737.687   716.646   709.387   709.387   709.389   723.932   710.990   703.848   699.148   707.025   724.346   730.297   725.690   727.597   712.428   700.354   694.472   705.962   725.340   724.719   710.937   712.990   721.676   725.099   726.866   720.426   721.297   698.779   689.819   700.615   691.792   695.250   704.880   708.488   692.499   679.748   693.359   692.519   695.999   694.934   697.668   707.389   695.856   689.902   693.999   702.367   707.185   714.549   708.371   717.726   724.544   729.264   722.907   708.592   708.786   721.719   727.607   731.416   729.373   717.763   725.486   723.431   731.673   736.216   737.969   732.930   721.295   708.842   709.484   721.809   717.923   716.051   719.432   726.402   727.484   727.673   730.187   735.323   740.688   746.980   745.490   744.696   743.921   747.519   752.551   759.388   750.050   740.416   759.427   765.014   765.238   763.198   757.434   768.689   774.882   782.880   788.510   792.459   800.629   804.129   807.235   809.123   809.111   814.568   812.529   813.494   820.188   825.016   825.405   815.976   813.583   826.780   838.742   853.588   868.357   870.689   865.328   868.452   879.887   892.865   900.607   894.315   887.868   878.602   877.499   876.131   870.810   870.563   869.880   865.280   865.216   861.247   858.636   858.747   860.171   858.628   857.536   858.418   865.201   873.872   858.768   855.256   850.033   851.252   857.521   849.613   852.522   853.550   865.087   867.890
765.523   770.953   746.309   740.528   751.046   757.164   761.400   767.625   755.284   757.273   744.766   736.477   753.787   768.049   778.113   772.909   762.668   760.232   735.156   715.563   721.227   726.812   731.245   730.301   710.902   722.388   708.513   709.997   730.574   739.480   737.959   727.162   712.294   717.253   702.035   703.302   721.314   728.059   710.937   725.293   734.118   729.068   732.729   731.146   714.725   699.474   694.379   701.378   691.792   705.368   715.750   708.605   686.271   692.697   706.007   697.607   699.509   702.707   703.986   696.991   694.698   698.511   702.672   711.905   717.396   721.461   713.335   713.299   719.712   730.272   723.622   711.609   708.592   726.249   735.030   738.077   728.011   721.933   728.264   728.518   738.984   738.769   732.450   727.086   717.953   709.721   719.204   725.824   720.431   721.290   719.006   731.649   733.198   734.932   736.159   736.814   740.165   748.161   752.512   750.852   747.466   748.615   753.412   760.558   761.592   744.506   746.043   747.634   749.948   750.867   753.379   756.394   761.198   775.925   780.730   780.880   781.228   792.765   799.078   802.009   802.001   811.215   820.212   816.647   825.640   834.568   834.967   820.726   813.583   827.555   838.189   846.871   847.548   851.478   861.008   876.374   891.668   900.763   898.217   885.612   879.393   877.230   875.247   872.242   870.063   867.896   866.413   866.844   864.254   859.305   858.942   868.351   871.463   860.743   859.832   868.390   873.694   863.825   856.227   850.352   852.956   862.947   859.208   851.135   851.970   857.595   864.838   870.427
774.620   759.022   746.718   741.898   760.132   776.574   774.998   776.485   758.683   767.790   744.406   744.145   758.130   776.456   786.428   778.546   773.435   755.475   734.946   717.936   730.417   748.925   747.860   726.858   719.507   734.632   720.069   708.513   729.632   748.928   740.605   723.620   724.756   728.889   709.134   705.951   724.712   728.245   716.902   731.606   736.516   740.518   732.898   716.481   699.474   700.252   703.762   697.444   696.114   715.377   724.346   709.183   691.910   697.136   709.584   703.295   708.763   711.137   704.848   697.922   704.263   702.998   705.585   712.774   724.235   727.635   720.390   716.509   722.058   729.927   723.951   709.258   715.354   731.422   737.989   739.480   730.212   728.948   729.343   733.488   743.024   739.180   730.015   722.786   714.867   717.271   726.252   728.648   725.632   722.318   719.389   728.440   737.032   740.126   738.874   739.287   747.261   748.440   754.613   755.921   749.830   750.846   755.387   759.801   765.874   762.313   751.343   757.982   763.694   767.645   766.398   769.005   766.831   764.861   766.763   768.732   773.198   777.308   789.740   791.904   793.380   806.144   815.558   818.083   821.227   829.946   840.560   828.333   813.583   818.504   827.358   830.492   842.303   852.047   867.799   878.894   881.606   889.840   900.597   888.260   878.777   877.930   879.576   876.551   876.120   870.225   868.828   871.859   865.931   859.380   860.110   871.956   877.062   866.087   865.140   877.523   872.157   862.671   855.266   856.498   866.560   865.737   857.003   851.978   851.135   854.691   857.314   863.552
770.437   765.528   761.491   745.763   760.394   782.463   786.849   783.189   772.602   768.439   750.751   756.869   764.314   784.273   791.646   778.234   769.449   754.052   735.749   722.211   740.027   756.292   741.390   723.546   737.695   749.953   732.214   711.547   731.148   751.994   740.220   733.256   735.441   729.293   708.126   708.405   727.636   728.935   732.237   746.335   744.546   739.421   723.530   704.435   714.614   711.323   700.428   705.670   716.963   724.941   732.203   714.049   694.235   703.475   715.074   707.911   711.533   712.182   701.114   704.846   712.222   709.154   709.597   713.436   725.299   731.083   720.721   719.125   728.053   732.976   718.828   714.486   723.454   731.934   738.776   736.880   728.948   734.232   734.262   742.336   744.216   736.690   728.167   721.300   715.180   717.210   729.126   730.011   726.907   723.604   722.770   727.404   736.340   738.525   739.199   738.915   744.961   750.450   757.767   760.820   759.103   750.506   754.700   758.940   766.454   769.283   768.330   768.289   776.581   782.856   782.686   779.488   774.722   782.730   782.604   788.140   789.456   788.357   779.208   784.876   786.146   801.165   818.394   819.720   822.458   830.325   841.551   835.234   817.729   821.929   830.225   840.146   845.877   861.981   864.766   864.334   871.155   886.121   899.060   891.795   879.332   881.220   886.112   885.614   882.492   873.435   874.705   870.762   864.689   859.769   864.519   874.045   880.489   877.469   876.740   875.148   866.359   859.941   855.545   861.292   871.724   867.980   862.450   854.222   855.536   860.360   863.247   864.632
775.342   773.747   761.458   748.391   764.979   788.067   803.655   797.280   791.839   772.141   766.698   772.322   778.446   793.753   788.368   772.052   756.966   739.000   726.082   728.074   748.685   761.086   742.619   731.018   753.140   756.035   734.560   714.259   733.164   755.284   742.308   743.787   743.049   726.098   721.049   716.018   732.055   734.512   740.499   752.109   740.913   727.169   712.225   716.547   724.401   706.293   713.539   718.733   733.857   736.461   732.621   710.405   696.048   710.789   727.386   723.273   716.196   716.435   701.487   711.689   717.136   712.383   716.280   720.935   731.981   729.462   721.562   722.946   728.006   731.408   717.702   717.824   730.353   737.456   743.578   735.048   733.055   743.326   741.961   748.386   743.087   732.443   724.450   718.405   721.590   720.239   726.758   731.702   730.225   726.271   729.956   727.263   736.343   742.375   743.896   745.678   748.576   750.366   754.785   761.878   761.650   754.428   755.218   759.990   766.688   770.906   772.730   770.999   776.168   785.535   788.238   787.892   782.264   782.693   794.596   804.267   810.378   802.054   787.090   794.679   787.312   802.770   813.934   819.267   824.634   827.699   836.136   841.982   832.752   821.790   829.720   841.262   847.875   855.821   854.899   859.709   874.702   884.568   894.948   896.531   883.964   890.357   891.553   890.865   887.053   882.513   873.539   867.273   863.568   865.754   866.548   867.937   874.051   881.843   880.606   870.905   865.300   860.673   858.484   867.248   877.540   874.753   868.929   856.260   855.563   861.340   869.366   870.471
782.546   763.230   758.430   754.449   762.150   785.669   806.091   811.770   800.601   781.337   782.458   787.700   790.917   803.342   786.782   769.506   749.557   728.083   732.990   744.787   761.711   765.910   748.204   737.013   759.541   759.457   735.007   717.967   735.596   759.686   749.087   754.846   754.074   731.431   735.278   724.991   739.703   739.375   750.204   744.619   722.734   716.911   720.797   732.616   721.180   709.131   722.279   733.456   744.286   736.659   722.215   704.811   707.902   721.428   734.105   723.470   724.686   723.218   706.084   713.814   724.264   715.444   722.171   728.154   740.395   728.452   724.582   729.708   731.632   733.926   722.255   717.702   722.830   738.925   743.560   735.653   742.400   747.994   749.279   749.278   739.671   728.625   720.268   718.405   727.785   722.744   726.131   731.224   734.100   729.491   733.190   732.519   730.127   741.211   745.662   749.436   752.615   759.743   761.917   764.951   763.219   760.400   759.516   759.736   765.975   771.586   776.268   776.133   776.949   785.827   792.365   794.199   792.419   785.261   788.693   798.676   808.922   810.585   803.781   801.690   794.084   795.581   807.120   815.646   822.039   825.363   832.275   840.483   841.530   834.438   830.479   834.146   843.464   847.489   851.472   859.593   869.613   882.016   893.782   900.280   896.079   892.491   887.626   883.586   879.845   871.950   868.124   866.271   867.797   871.867   876.246   874.953   880.115   883.074   876.914   868.486   864.847   861.717   865.492   877.419   884.969   882.480   874.451   858.306   855.563   857.687   862.445   867.446
783.767   763.584   775.873   761.771   764.866   786.257   806.334   823.555   810.270   799.579   799.359   805.001   807.467   806.554   784.879   762.476   740.380   729.594   748.028   755.716   770.534   773.363   756.018   743.018   764.681   761.708   732.613   727.152   746.738   765.301   760.111   769.256   753.005   737.708   746.218   738.586   752.322   747.283   757.423   736.855   720.369   737.065   737.654   729.871   714.573   720.675   729.811   745.077   742.638   725.484   707.608   706.624   715.366   731.239   737.513   727.418   730.226   729.672   715.691   712.821   730.947   725.505   722.263   728.285   742.646   730.289   727.410   734.228   739.648   739.076   728.258   723.502   718.599   736.025   745.083   739.425   746.771   751.667   751.339   746.593   732.788   721.812   719.635   719.298   730.822   723.811   733.356   730.398   738.198   734.368   735.546   738.205   735.298   737.737   740.871   744.901   747.561   752.122   756.670   761.055   768.510   770.277   767.391   765.048   763.462   769.897   777.852   781.485   780.070   782.238   788.572   793.158   800.349   792.630   791.564   792.598   803.232   815.175   813.799   806.144   806.322   794.213   805.454   812.726   809.532   807.942   815.966   833.411   847.555   844.284   837.611   837.297   842.812   853.258   859.124   859.692   867.789   880.867   891.222   899.720   893.973   884.759   878.608   875.563   872.688   869.380   868.824   869.867   869.821   878.661   886.117   887.837   878.644   874.393   869.668   867.764   864.707   866.137   872.119   882.662   890.701   889.254   876.689   860.221   859.700   856.804   858.293   860.798
776.945   777.078   790.250   769.468   770.446   786.869   806.528   827.512   824.768   810.028   818.386   822.727   819.096   798.698   778.860   759.840   736.948   746.441   755.901   770.980   783.007   782.261   767.832   751.022   769.196   760.241   730.704   744.427   759.723   777.602   776.407   770.138   748.137   751.358   751.612   752.404   762.305   757.509   760.265   732.479   728.804   753.233   752.025   733.318   734.183   739.043   750.393   752.991   738.131   724.939   719.798   713.699   723.149   739.409   741.709   734.804   737.785   739.104   721.336   712.821   728.042   737.214   725.034   732.077   744.697   733.821   728.837   735.236   747.126   745.364   731.429   725.703   720.370   741.619   748.852   742.341   749.765   753.314   749.800   741.035   739.122   729.066   728.087   728.604   734.578   727.210   740.261   735.510   742.143   740.447   738.447   741.238   742.025   742.497   745.781   748.514   749.989   751.476   756.056   762.633   771.392   776.617   780.196   776.083   767.397   767.980   775.517   784.299   787.086   786.188   786.226   789.283   797.090   802.296   799.256   799.387   799.433   809.771   821.293   815.986   813.476   800.629   798.986   803.130   805.344   816.673   810.036   825.450   842.067   853.407   847.577   840.076   847.695   860.705   871.205   870.388   871.154   882.274   893.070   900.219   889.711   879.175   875.268   875.138   874.927   871.576   872.366   879.991   874.632   880.618   886.987   878.458   869.706   868.902   867.788   866.876   867.704   871.111   876.808   882.734   891.776   891.281   884.260   875.848   866.736   858.557   858.288   866.409
777.322   789.576   800.832   783.304   770.798   788.990   806.725   827.320   838.058   827.358   835.826   828.148   810.239   787.739   765.487   747.978   738.930   756.691   762.873   778.816   796.504   792.065   769.290   761.592   777.398   760.163   737.422   760.399   770.998   786.800   788.196   769.002   756.964   767.779   765.457   771.291   772.141   771.911   756.569   733.609   745.627   768.501   757.151   737.261   753.423   757.399   763.557   754.909   737.379   719.798   723.817   730.299   735.999   748.887   748.419   742.948   751.419   739.757   721.126   712.821   731.186   741.401   728.129   739.095   752.210   738.866   734.295   738.617   749.169   747.719   735.766   729.367   725.190   740.110   751.556   744.665   751.846   753.469   748.544   737.425   739.960   728.537   729.029   734.778   737.356   729.696   740.712   739.171   743.367   746.546   744.998   741.026   745.064   748.822   753.190   757.578   755.415   753.911   758.147   764.157   770.637   774.567   777.960   780.084   772.517   768.921   773.597   783.060   790.574   791.359   793.421   793.853   797.787   801.793   804.622   805.421   804.332   805.953   815.909   825.666   817.966   808.537   805.115   807.177   814.650   827.982   816.076   825.834   839.530   854.369   859.007   848.597   850.012   859.158   870.072   878.072   886.260   894.091   901.445   896.861   886.908   877.967   878.855   881.999   882.464   877.260   884.496   890.141   883.258   882.392   881.211   869.601   868.783   868.713   868.525   868.860   869.570   878.884   889.965   892.445   892.338   883.752   881.723   874.287   859.765   858.845   859.152   869.068
789.410   801.503   810.657   794.719   777.108   790.231   807.088   827.705   846.705   844.098   837.203   812.398   795.225   779.835   750.372   747.103   751.790   771.440   784.702   789.408   806.961   794.465   771.990   773.688   786.490   764.411   747.241   769.752   787.962   799.610   795.396   772.204   773.214   778.528   780.061   785.777   781.276   767.860   745.781   742.153   762.786   780.276   765.341   748.608   767.079   773.930   777.387   760.547   733.217   723.681   727.214   745.634   747.637   762.064   753.858   752.530   758.360   737.835   717.698   721.982   742.329   746.130   731.116   745.056   758.522   741.243   738.509   749.948   756.088   747.488   737.214   736.267   728.125   735.352   754.231   746.497   753.649   752.898   745.959   736.805   729.766   731.384   738.955   736.835   739.754   729.729   741.913   744.941   744.293   749.980   751.006   747.906   745.484   750.438   754.708   760.579   759.471   756.879   758.496   762.429   767.030   770.538   772.562   776.402   780.199   777.051   773.992   776.803   780.208   784.180   787.417   791.625   797.275   801.838   808.094   808.254   812.016   809.572   811.821   823.756   828.057   818.645   805.115   817.376   829.129   829.913   818.421   831.387   844.269   850.614   861.634   860.451   857.549   856.460   861.767   867.804   877.891   889.386   901.687   891.209   882.543   878.259   883.390   892.635   893.419   886.222   892.113   891.566   885.478   881.180   876.492   869.836   870.998   874.175   873.446   877.086   875.885   879.045   886.192   894.442   889.335   874.878   868.619   866.333   862.790   860.001   866.409   873.306
802.654   815.163   820.476   803.961   785.472   796.198   812.429   831.946   851.838   858.294   832.491   811.674   790.819   765.558   748.445   759.881   774.430   786.163   804.170   801.894   815.793   795.621   780.718   789.087   797.416   774.300   765.388   786.798   801.286   811.128   800.240   789.313   790.101   798.738   794.560   782.691   767.223   756.938   753.480   768.852   780.000   786.264   765.859   768.615   782.970   790.463   780.473   760.781   728.453   735.368   730.883   748.554   765.724   775.090   763.596   766.952   747.716   729.058   719.578   733.610   752.978   749.919   737.654   750.404   758.826   742.745   742.862   755.548   761.665   749.158   744.713   739.623   730.717   738.963   758.574   748.268   755.059   750.912   740.287   735.619   736.079   740.840   742.627   740.787   741.708   730.782   742.191   750.312   746.606   749.728   753.207   749.928   747.721   751.209   758.065   762.426   763.587   761.222   759.392   761.097   764.448   767.762   770.635   773.977   778.594   777.928   779.639   779.060   780.180   785.246   790.058   792.469   795.701   801.934   808.312   817.592   815.796   819.075   813.221   822.413   831.430   826.812   813.207   812.016   829.853   834.179   819.909   830.363   841.401   846.836   854.805   863.240   870.272   869.130   868.269   868.980   878.268   891.074   899.770   886.324   880.343   880.655   888.081   899.078   900.179   895.812   890.533   881.371   878.704   876.820   873.238   873.111   881.284   884.666   882.007   888.528   885.701   893.245   892.352   898.914   893.568   882.152   870.425   864.441   861.957   862.812   876.302   885.056
819.132   833.283   828.766   812.113   795.295   805.149   821.970   836.907   858.545   864.403   845.200   825.408   796.459   770.767   751.750   769.693   789.318   806.380   813.694   824.854   824.427   803.973   798.059   807.504   806.576   781.459   782.790   802.483   817.926   824.623   812.140   807.689   810.372   803.755   789.782   773.365   762.688   764.416   769.122   785.863   799.453   785.498   768.702   790.229   802.842   792.172   775.293   751.857   737.403   747.579   745.870   759.323   775.472   785.268   776.408   766.818   745.175   725.422   735.443   746.173   762.062   750.837   754.677   764.280   757.839   748.880   757.164   755.344   766.593   755.742   753.689   737.299   733.719   746.882   761.221   749.939   756.237   746.589   737.409   738.577   742.198   747.889   744.903   745.835   742.749   732.767   744.669   752.984   749.302   752.021   756.045   752.858   751.807   755.288   762.237   767.258   766.878   764.172   762.940   764.475   767.190   770.267   772.335   776.012   778.221   779.003   785.698   787.776   787.811   785.927   792.196   796.638   797.486   800.315   807.857   819.111   822.183   822.718   818.068   820.800   834.664   834.534   823.598   812.504   828.555   842.347   828.981   825.037   830.932   839.533   850.451   863.315   872.096   876.327   881.518   883.325   892.931   900.799   891.861   884.748   887.155   889.413   889.446   897.336   892.664   887.352   881.623   879.120   878.011   876.950   876.935   877.241   884.459   893.544   891.665   894.569   899.217   902.359   900.904   895.398   888.525   881.673   868.637   867.246   865.344   865.747   869.807   881.390
834.306   847.932   835.963   819.950   805.511   816.445   832.560   846.929   865.886   867.113   848.681   825.360   794.792   772.953   756.516   774.691   796.849   817.521   832.301   839.477   829.775   809.129   811.720   822.126   806.873   783.561   797.621   814.724   835.005   839.899   830.579   823.091   810.848   793.401   779.778   772.229   771.567   783.050   786.653   804.545   805.002   793.652   789.781   812.316   809.259   791.713   772.425   746.218   751.482   750.556   758.195   769.883   788.916   783.037   766.487   749.200   732.885   728.908   747.263   758.027   770.472   755.912   765.099   776.144   765.890   762.489   767.411   764.876   771.159   766.815   749.597   736.818   739.400   757.684   760.658   755.519   751.099   742.633   738.722   745.996   750.967   750.914   747.243   750.021   749.625   737.298   743.568   753.852   752.549   757.110   760.032   757.909   757.296   756.604   761.258   769.960   769.947   767.009   767.999   770.929   769.827   772.530   774.090   777.360   781.808   783.276   786.699   792.749   796.954   795.161   789.950   795.780   801.408   802.847   808.261   816.597   827.642   829.064   819.132   824.667   834.632   840.519   828.251   814.323   826.479   839.978   846.231   838.147   834.847   831.844   842.147   854.957   862.143   869.197   878.748   884.604   893.729   899.178   889.607   886.867   892.561   900.204   905.601   898.945   888.239   886.491   884.253   882.153   880.059   882.312   885.777   881.679   885.797   898.321   902.940   904.615   901.211   891.060   885.765   881.034   875.004   870.006   868.499   872.355   866.609   872.654   876.340   883.543
848.836   859.440   844.911   829.398   815.552   826.807   845.034   859.236   874.811   870.402   851.700   826.297   786.424   771.934   760.085   779.079   795.817   815.899   839.112   850.099   835.154   817.005   826.973   827.992   805.364   797.282   810.759   833.269   849.534   852.498   837.046   817.125   799.269   789.057   780.090   778.688   788.827   798.000   807.630   822.816   817.776   805.422   814.475   821.312   802.003   785.933   766.938   749.020   761.757   760.208   768.403   781.330   796.627   779.161   759.862   742.333   733.125   746.639   757.342   774.864   775.370   760.724   768.839   785.368   781.971   778.042   774.695   773.019   770.458   756.944   740.345   738.239   754.720   766.275   758.438   760.669   747.839   741.163   740.086   749.988   754.286   752.160   750.216   752.523   752.382   746.562   741.339   754.049   757.157   760.334   762.713   761.868   760.552   760.780   762.063   768.560   773.373   770.053   769.636   778.394   778.087   774.569   776.955   777.600   782.588   790.214   788.240   792.087   796.860   805.677   807.954   799.374   800.816   800.816   805.502   812.960   825.407   832.303   824.425   830.348   837.556   845.856   839.633   828.358   819.711   834.256   852.838   854.418   850.933   843.206   837.107   840.282   853.246   864.705   872.959   882.372   892.398   896.751   888.837   888.911   895.966   904.469   911.606   901.093   893.478   891.886   887.011   883.574   884.744   890.338   892.453   886.283   891.216   898.782   907.426   900.535   891.964   885.497   880.728   878.436   878.751   872.224   874.095   875.696   870.120   875.253   881.383   890.424
866.636   872.291   856.199   842.959   829.510   837.747   854.633   873.759   886.660   873.713   849.468   814.948   783.488   760.276   778.505   789.123   800.290   817.193   840.778   856.553   842.760   828.742   841.012   828.395   821.154   810.008   829.112   847.502   862.645   853.799   834.820   814.596   800.726   806.389   790.747   803.510   804.576   808.732   831.623   838.579   824.866   819.804   828.648   812.967   796.875   781.622   759.532   766.438   769.186   775.283   783.065   798.645   797.585   780.442   757.323   739.035   746.230   760.931   774.494   782.378   771.180   774.796   785.065   790.016   776.781   762.113   755.433   753.429   749.364   742.850   740.690   754.399   768.542   766.574   765.173   754.802   743.523   741.282   749.919   753.586   757.216   754.398   753.842   755.062   755.050   750.047   745.393   758.646   761.473   761.426   764.884   764.987   763.277   765.234   766.806   767.292   770.908   775.853   774.129   776.665   782.614   779.082   779.732   780.979   785.687   792.747   797.065   797.858   798.731   804.800   815.248   821.174   814.076   808.282   809.546   812.655   819.347   831.246   833.398   829.983   841.334   847.645   853.298   846.075   833.717   825.738   846.776   858.281   860.273   856.849   847.656   840.258   855.038   867.180   877.941   887.146   898.187   898.354   891.466   893.685   895.890   904.689   913.733   906.052   903.006   890.825   887.149   886.781   889.212   900.140   893.929   893.686   903.930   911.406   913.066   903.433   899.374   892.747   886.814   889.246   879.044   879.866   884.045   876.700   870.321   874.514   878.449   886.372
882.738   883.046   869.718   857.625   842.830   850.750   869.035   888.304   889.587   870.049   848.138   818.906   794.180   771.004   775.524   793.419   806.715   822.930   841.086   863.725   854.941   844.511   852.422   839.562   829.028   825.755   841.494   860.149   869.928   850.087   829.190   810.919   812.799   808.466   818.416   828.663   826.365   827.223   844.267   849.644   834.008   835.513   824.695   804.630   788.748   772.403   763.936   776.759   779.363   790.388   803.323   810.460   797.592   780.714   753.441   753.719   759.002   774.614   789.820   783.429   782.240   781.497   772.581   770.008   762.580   755.433   755.859   751.275   748.086   749.406   758.632   769.425   773.497   770.521   765.205   750.485   745.880   749.457   757.381   759.465   760.580   757.719   758.708   757.859   758.587   751.282   746.851   760.807   765.775   763.983   766.971   767.769   766.223   768.955   771.743   771.020   774.194   779.534   778.888   780.273   782.559   785.902   784.153   784.880   786.658   792.693   799.814   808.984   810.946   809.023   817.973   830.246   822.550   816.637   822.240   820.015   816.279   823.294   838.038   832.978   841.193   849.004   856.047   858.254   843.632   828.138   834.262   848.599   860.378   859.787   843.391   848.344   866.606   877.318   883.559   890.529   900.942   900.251   895.464   901.690   901.866   903.884   913.579   914.530   901.043   891.233   888.821   888.706   896.920   906.293   900.499   901.099   911.135   921.093   920.209   916.072   910.660   905.123   892.992   893.043   879.823   888.223   880.236   872.967   871.695   876.547   882.648   890.084
900.933   899.492   884.630   869.952   857.106   869.334   882.521   900.146   886.031   863.216   838.750   815.635   800.694   784.335   771.496   787.770   805.526   824.137   841.774   865.194   868.518   860.492   863.772   852.745   833.616   837.612   855.139   872.367   866.814   846.791   826.826   813.686   822.880   825.256   838.000   847.058   847.923   849.665   863.305   863.440   851.750   834.517   812.120   791.617   778.077   766.650   783.434   780.236   795.903   806.505   817.712   811.379   795.536   777.595   753.441   768.580   773.339   783.588   797.272   795.748   790.106   772.417   764.504   758.850   758.850   757.127   767.760   770.835   762.946   767.486   769.108   779.516   775.941   773.998   760.657   750.306   749.673   758.823   767.498   767.606   764.316   760.887   761.746   761.151   761.138   749.655   751.584   765.646   768.844   767.607   769.597   770.690   768.924   771.624   774.892   774.450   776.713   783.063   788.860   787.718   785.966   789.401   790.485   789.314   792.325   794.845   801.341   813.027   824.007   824.564   819.273   829.879   841.400   826.247   825.406   830.077   826.459   821.756   830.752   842.505   840.354   851.471   858.582   863.711   849.020   838.006   838.243   836.803   853.453   860.775   849.026   856.985   865.098   876.025   890.241   897.968   907.330   907.294   899.573   903.852   912.870   915.415   919.652   907.463   896.399   892.918   896.802   890.500   903.217   911.142   908.883   904.319   914.003   923.482   923.621   921.246   920.197   910.644   904.389   898.263   890.550   888.566   878.533   874.035   874.889   877.458   884.545   893.868
913.013   913.086   899.403   881.333   873.465   884.971   899.365   905.746   886.839   862.856   841.109   821.458   803.949   788.560   777.158   799.702   809.421   826.127   844.086   866.348   881.129   878.920   874.358   854.664   845.657   853.179   871.006   882.049   865.549   846.878   833.834   827.740   831.198   840.400   848.352   868.522   874.087   880.393   881.682   869.704   852.992   829.066   801.933   779.003   783.993   787.480   795.838   795.360   809.139   819.850   826.822   809.440   793.460   774.763   761.062   782.235   790.308   798.748   802.273   794.283   778.918   768.610   781.891   776.612   772.471   759.213   766.115   780.416   786.718   780.577   785.592   781.517   781.817   769.787   758.657   751.187   750.343   765.832   774.072   773.933   765.599   764.002   765.304   765.164   760.358   750.245   756.373   770.372   776.199   771.312   772.122   773.564   772.548   774.549   777.966   777.966   778.043   782.603   791.100   798.976   793.953   791.004   801.469   797.845   796.151   806.088   805.915   815.345   831.522   838.114   826.227   835.498   850.397   836.333   827.938   838.935   837.984   828.952   828.183   843.880   844.632   852.598   864.122   872.110   856.894   844.423   849.062   850.228   844.182   859.916   850.027   854.867   858.398   880.169   888.885   898.297   908.169   916.201   910.463   907.318   911.248   923.272   913.575   901.261   898.063   902.653   908.610   896.993   897.455   905.969   915.138   919.711   922.214   926.849   915.024   911.512   913.050   911.280   911.777   903.424   889.595   884.290   878.873   875.256   877.971   883.864   889.156   894.696
923.855   928.989   908.929   894.947   890.568   902.758   912.751   909.215   886.561   864.643   846.274   828.887   813.968   797.543   779.135   795.653   813.921   831.928   853.211   870.225   891.821   893.428   879.815   860.052   865.318   874.597   884.224   882.518   866.069   848.553   834.297   833.540   850.831   845.912   867.395   882.955   890.785   889.310   878.963   859.222   847.418   823.672   805.883   798.476   788.059   810.579   813.420   813.024   825.431   834.811   822.021   804.864   785.867   766.510   778.347   791.467   806.487   803.461   794.350   780.034   768.610   777.821   796.046   793.563   780.081   767.732   765.712   782.370   793.489   789.120   793.135   789.121   777.769   766.365   757.897   752.389   754.224   768.207   778.528   780.084   769.604   767.197   768.300   767.392   758.415   757.781   759.529   772.160   781.301   777.636   774.840   777.048   776.322   778.628   781.579   784.641   783.279   785.648   795.325   806.090   805.250   795.742   801.571   804.987   798.498   809.808   821.080   818.356   836.767   850.345   841.999   845.544   860.601   845.280   830.302   845.262   843.266   834.247   830.580   840.323   851.120   853.759   865.592   878.681   864.964   849.666   856.062   860.224   848.999   851.409   864.836   868.043   857.689   873.771   893.127   903.659   913.482   920.500   923.292   921.983   923.088   925.998   911.353   903.901   909.986   914.557   917.968   899.351   903.077   901.745   911.168   921.033   929.856   928.157   911.617   901.244   899.989   898.583   899.178   897.432   887.826   882.284   878.700   877.393   878.772   887.503   895.863   892.072
935.029   944.361   923.896   908.683   912.204   920.633   927.257   909.960   885.524   863.538   843.162   821.356   802.928   788.961   789.329   803.927   822.611   841.070   861.235   880.426   903.722   903.329   887.911   882.064   888.770   892.990   895.680   885.771   873.336   859.188   836.908   835.791   860.638   864.562   877.333   892.284   887.517   876.460   863.997   843.343   829.956   819.288   811.155   799.163   802.316   816.169   829.509   827.618   840.008   829.253   809.553   797.649   779.193   773.673   790.042   810.000   806.584   794.567   786.418   775.051   782.944   795.475   800.890   794.636   787.459   770.580   766.695   785.924   801.500   799.430   790.881   781.080   769.173   762.111   756.670   757.157   764.196   770.354   780.581   777.862   774.810   771.185   771.466   770.668   759.311   764.242   760.472   771.467   779.392   782.705   778.341   780.237   780.170   781.757   785.031   790.303   790.511   787.402   795.818   807.893   812.161   804.014   802.120   807.598   809.480   819.057   831.694   825.278   833.927   853.979   856.520   853.051   863.890   845.120   841.578   854.231   845.919   841.450   837.411   836.868   852.805   856.361   863.477   879.065   871.222   855.895   865.613   866.167   859.106   855.343   860.354   872.174   862.612   869.670   887.067   898.022   904.494   910.637   918.561   926.181   930.759   926.335   909.874   911.555   921.736   927.605   918.798   905.072   902.591   913.571   908.367   918.205   928.164   929.344   914.323   901.975   897.036   893.060   889.743   887.852   885.536   884.230   885.111   879.557   883.603   893.358   895.097   885.343
943.989   955.264   937.429   930.494   932.129   938.414   931.749   909.805   887.135   869.690   845.658   820.115   799.087   793.862   804.450   813.312   833.377   856.438   876.643   893.102   912.835   912.053   899.602   901.349   907.724   906.917   896.492   881.911   868.071   854.964   835.791   840.365   855.743   870.513   881.750   894.103   881.295   868.262   852.540   833.510   817.544   811.403   818.933   821.211   826.585   837.888   843.035   841.101   839.886   820.801   804.172   787.517   775.129   793.473   810.438   812.118   802.214   792.330   787.261   775.051   782.942   803.205   805.008   798.688   788.089   774.209   767.902   792.518   801.373   789.330   780.728   771.879   764.404   759.321   757.818   763.221   776.036   779.934   780.825   777.935   780.493   776.361   774.272   770.715   765.943   766.158   760.472   768.191   778.820   783.437   784.066   783.867   785.194   785.879   787.592   793.919   800.742   794.253   795.037   803.608   813.366   810.922   806.465   810.634   818.928   816.038   825.887   839.806   844.557   850.801   863.379   860.550   867.829   853.336   845.180   859.703   849.587   851.621   845.442   840.892   846.921   858.463   872.418   882.360   881.555   861.720   873.588   875.271   868.454   868.907   859.651   870.136   869.331   868.545   882.211   889.985   895.115   903.575   912.447   917.278   922.413   930.425   915.449   922.339   925.561   932.262   922.162   912.107   904.942   920.203   913.416   923.658   930.751   930.305   918.338   906.428   898.325   893.921   891.580   888.892   885.846   888.335   893.781   886.864   894.061   894.295   888.960   880.360
952.714   968.179   953.986   951.598   952.786   949.447   928.826   911.406   888.908   866.332   844.597   826.451   804.524   802.766   818.810   823.788   834.422   859.009   882.712   903.329   922.825   923.782   916.632   922.293   922.982   910.396   892.854   875.103   860.122   845.909   847.522   854.408   861.612   877.034   891.081   897.468   890.928   878.213   864.320   850.998   836.462   824.087   840.723   834.057   846.835   853.959   849.554   839.002   826.040   813.966   797.228   780.955   793.796   809.743   815.791   811.349   811.690   809.709   795.261   777.899   785.849   809.776   806.158   798.282   789.194   775.844   771.467   799.189   796.182   787.324   772.933   763.855   759.622   758.776   762.215   769.518   781.940   784.004   785.252   782.631   784.074   778.090   772.908   767.495   775.365   765.333   765.036   770.285   782.930   789.031   789.406   787.253   789.712   790.935   790.388   794.499   802.797   802.672   800.737   804.040   811.096   819.226   815.427   813.840   821.670   832.073   833.916   833.935   853.483   867.077   869.827   876.161   872.813   865.155   848.367   864.063   854.691   858.310   851.575   844.943   847.584   863.888   876.162   890.067   884.393   870.104   882.702   882.266   873.583   885.662   873.735   866.818   878.359   868.545   876.237   878.801   882.857   892.061   903.507   909.177   925.226   933.750   924.572   925.709   933.644   936.580   926.886   911.483   911.362   924.383   924.009   928.285   931.538   922.373   920.813   905.065   897.829   894.718   892.095   889.731   888.068   894.646   902.531   896.271   896.029   886.985   884.654   883.703
958.436   979.408   974.735   971.866   963.783   944.549   924.273   901.916   879.996   861.199   843.894   824.398   803.432   804.038   826.482   845.867   858.065   862.918   883.956   907.423   928.596   934.925   933.896   939.940   929.062   911.848   892.651   874.094   860.477   845.909   855.690   871.673   873.682   877.809   896.135   906.275   897.052   879.800   865.812   853.051   837.749   832.113   853.049   858.404   862.640   852.005   834.808   816.768   804.972   799.013   790.398   793.916   812.436   824.107   823.989   825.518   820.805   812.506   793.237   777.899   794.175   811.586   805.140   795.128   780.379   772.558   777.959   802.893   803.091   782.777   769.197   764.217   760.513   760.406   779.723   775.781   782.718   790.592   788.999   788.844   787.694   779.003   771.167   778.426   786.008   768.500   772.551   765.490   776.118   788.713   793.328   792.007   792.358   793.982   794.311   798.597   802.499   810.191   811.224   808.696   812.811   820.673   825.690   821.015   824.125   832.328   848.099   847.432   851.613   873.250   883.656   883.334   879.007   863.190   860.123   872.402   863.281   862.726   858.017   847.766   849.859   865.054   888.020   896.731   890.412   878.102   889.591   889.889   880.345   892.567   883.977   870.305   887.990   882.325   873.990   881.464   880.898   886.639   897.309   910.512   926.396   935.009   936.900   939.694   941.210   936.845   918.969   911.362   916.883   929.568   932.785   932.949   922.485   912.110   910.057   899.655   896.600   893.862   892.448   890.162   890.310   901.757   909.955   903.109   891.037   890.732   887.233   889.980
961.273   984.937   993.700   977.637   956.521   934.841   918.195   897.200   870.808   850.518   832.264   823.053   808.438   811.804   826.642   848.400   871.207   884.383   893.138   909.556   931.519   953.541   954.803   947.466   927.580   906.333   883.435   876.217   863.048   855.260   868.343   879.421   898.456   894.356   908.843   903.927   884.361   867.847   855.722   841.549   842.447   846.219   864.807   873.672   856.105   841.070   819.742   805.228   806.564   802.260   802.966   816.911   829.043   830.272   830.513   828.922   817.197   798.758   788.618   779.529   802.021   806.008   794.239   786.883   778.573   777.353   792.371   810.317   800.093   779.039   767.569   764.005   762.557   780.679   788.469   783.850   782.830   793.535   793.970   793.890   786.621   779.983   776.895   786.958   793.231   775.400   773.061   775.644   771.835   779.198   791.743   796.517   796.736   796.998   797.716   803.242   805.810   808.010   816.560   821.147   817.266   823.225   833.803   827.890   829.430   833.863   841.269   858.592   864.538   868.432   884.326   895.409   886.830   871.450   865.919   884.159   871.980   866.992   859.289   851.573   851.676   865.296   891.789   905.764   899.689   886.896   897.729   895.834   887.958   897.909   885.172   879.189   895.975   891.182   885.886   894.672   893.406   888.363   890.873   905.450   917.357   925.902   934.001   941.417   943.355   931.967   914.194   918.250   926.940   934.387   933.287   923.157   910.792   905.587   903.733   898.971   896.323   896.884   897.663   895.208   891.135   898.030   904.444   894.902   891.564   895.852   891.605   898.612
965.311   987.774   995.451   971.874   951.283   931.152   908.722   884.057   870.666   857.064   836.833   817.978   820.933   828.317   827.864   846.742   870.847   891.563   915.820   927.284   941.621   961.861   960.271   938.532   916.774   897.914   888.061   879.877   865.770   870.563   882.449   894.670   912.653   918.294   911.542   894.087   873.761   857.820   853.182   864.108   853.204   867.345   877.205   873.635   851.195   828.834   810.400   825.222   827.973   816.599   826.847   828.606   819.395   820.477   822.431   809.752   802.995   793.552   789.205   799.991   811.369   804.868   791.076   783.942   779.880   795.074   810.783   800.577   790.180   776.604   769.813   766.323   769.365   787.308   791.686   788.076   790.426   793.650   799.108   793.421   785.717   779.801   783.926   795.279   797.843   781.702   773.885   779.465   786.230   780.533   785.558   797.761   800.149   800.620   801.738   808.081   812.890   809.695   816.053   827.633   825.682   826.420   835.555   843.005   839.564   839.006   843.046   856.916   878.573   889.840   881.954   901.852   896.418   889.208   874.657   890.172   880.559   871.925   861.775   855.254   855.510   874.212   890.425   909.957   910.666   897.428   910.558   900.182   899.466   903.207   889.102   886.681   903.511   900.652   891.211   907.134   905.699   901.019   893.395   904.111   916.115   932.197   941.467   948.409   936.841   925.131   921.378   928.209   932.223   935.945   925.802   914.001   907.934   909.112   912.692   905.970   898.132   899.589   909.989   901.240   892.817   899.832   901.778   893.988   894.475   899.840   900.592   901.270
973.497   990.459   995.644   973.271   953.175   928.042   907.873   894.557   876.586   854.147   831.835   819.253   830.882   843.951   835.127   843.073   864.289   890.613   916.950   937.289   957.228   969.914   958.538   936.179   919.833   918.260   906.831   889.058   876.967   888.860   893.644   913.156   926.357   926.574   908.852   889.325   868.429   871.454   866.408   873.837   870.564   886.277   887.901   866.612   848.102   831.500   813.287   838.502   843.602   837.084   836.225   824.295   827.334   809.290   810.710   796.109   789.896   789.205   802.737   817.038   802.629   793.197   788.651   784.266   799.380   814.115   804.110   788.246   783.618   777.601   772.218   768.573   773.285   788.463   794.130   790.266   798.753   795.033   800.745   794.514   786.949   788.675   793.420   801.152   795.218   778.242   780.927   787.678   792.358   798.422   780.857   789.255   802.469   806.527   807.340   809.904   820.202   815.894   818.212   827.855   841.462   838.025   838.703   855.401   860.914   847.490   846.188   857.597   881.134   901.273   895.783   903.848   908.875   888.911   889.107   896.341   878.748   876.010   866.260   859.578   857.618   875.403   896.906   913.068   922.326   911.500   921.638   910.278   911.242   906.745   889.997   898.024   912.954   904.333   903.593   917.267   921.833   914.788   898.059   903.773   919.433   933.324   944.933   951.641   936.626   924.667   927.086   936.939   940.042   929.185   917.372   914.190   915.893   920.935   915.767   902.920   899.590   909.775   913.556   897.765   895.754   901.096   900.207   899.732   897.747   901.947   911.469   913.414
982.508   995.821   996.641   975.904   953.458   928.777   907.561   884.787   877.926   867.786   850.525   823.542   842.564   857.262   848.729   854.279   868.354   893.160   918.469   935.229   958.163   971.557   962.598   948.044   932.916   920.144   904.570   886.948   894.545   904.145   915.522   926.405   938.858   930.003   911.471   887.742   868.429   882.680   874.958   886.023   890.255   895.723   880.570   852.692   831.596   824.107   834.756   849.412   852.159   840.782   830.698   836.205   830.915   811.344   799.383   800.710   807.161   806.172   814.179   809.925   793.254   793.105   790.758   793.140   810.442   811.764   793.745   783.793   782.266   778.548   772.882   775.063   780.306   792.009   799.373   795.326   801.590   799.835   802.161   792.116   789.347   796.734   800.409   795.329   781.131   778.863   790.082   796.261   791.302   803.477   799.035   793.098   797.943   807.900   812.131   815.138   821.374   824.471   819.318   827.272   842.504   858.327   854.776   859.535   879.143   859.333   852.006   858.976   878.806   903.005   909.190   906.783   914.010   891.873   905.245   896.213   884.075   883.333   872.388   862.498   863.260   878.875   893.419   913.068   930.330   925.305   931.941   918.668   923.932   907.273   892.985   906.476   922.532   907.737   910.420   926.434   932.251   916.522   899.682   909.728   926.728   935.195   948.011   954.646   943.748   927.957   936.150   943.656   940.447   924.350   924.185   926.682   925.757   919.938   910.781   903.637   909.743   919.424   911.355   898.028   898.481   900.986   900.806   903.032   900.312   907.242   910.272   920.957
997.393  1002.497   989.936   967.515   945.335   923.627   903.282   898.493   895.935   881.179   857.366   834.581   849.124   866.682   861.396   871.007   884.219   903.668   920.238   942.452   960.684   973.790   960.608   941.586   920.471   905.359   899.418   898.390   904.272   922.944   931.918   941.931   945.580   932.420   908.240   883.824   881.194   893.756   889.880   900.532   909.156   895.638   873.461   853.473   838.109   844.064   852.936   861.609   847.262   837.410   840.586   849.139   825.703   805.115   811.178   821.987   824.668   820.258   824.200   805.866   795.512   799.541   799.868   809.834   818.663   801.431   788.611   787.901   787.591   779.184   775.199   781.494   790.343   790.059   801.125   800.016   802.537   805.597   799.031   790.744   798.912   801.026   797.171   784.775   786.719   788.710   802.039   805.616   797.271   804.232   814.664   811.559   797.633   811.765   816.721   818.794   827.311   834.334   829.452   828.451   841.460   863.792   880.401   872.927   890.609   874.811   860.514   860.408   885.911   907.183   919.668   916.250   919.371   910.160   919.956   898.710   888.670   892.652   880.801   865.352   867.352   884.579   905.910   922.555   934.988   942.930   942.191   931.813   934.284   908.217   902.627   916.185   929.429   914.337   918.517   929.973   935.325   916.729   905.961   915.877   932.634   945.729   954.526   959.160   945.115   932.158   944.061   948.507   939.620   930.458   935.858   930.066   918.507   912.189   908.357   909.436   918.243   919.394   908.048   898.028   900.651   901.129   902.978   906.961   907.446   909.598   918.236   927.749
1011.602  1007.003   987.138   963.953   944.570   930.385   923.292   913.956   893.456   880.042   850.696   843.315   860.821   871.128   872.261   878.181   904.590   918.681   934.406   947.472   965.949   973.969   953.155   933.104   916.749   903.261   910.013   909.415   913.109   935.976   945.326   956.062   948.629   930.520   906.240   897.677   898.396   910.746   907.761   920.085   905.411   885.362   864.805   847.481   852.925   865.972   866.057   855.118   845.263   851.005   855.946   846.781   828.931   808.974   825.245   832.080   835.476   829.320   825.613   803.985   799.994   810.875   812.830   822.117   810.084   791.618   792.370   793.306   785.344   779.195   780.723   791.307   793.379   792.210   798.294   807.353   805.746   803.635   797.658   802.365   800.850   800.701   791.932   795.767   796.195   799.003   803.838   814.192   804.365   806.451   818.646   829.239   818.249   809.094   821.347   824.525   830.120   844.116   852.098   836.768   841.747   862.136   885.757   896.989   903.762   889.200   869.733   869.988   889.975   915.673   931.026   931.116   927.442   929.386   930.366   905.883   901.088   896.913   879.143   867.762   874.496   881.300   898.995   918.982   937.914   953.759   953.588   948.668   937.288   914.684   921.882   932.616   937.734   921.765   926.333   941.488   936.266   915.987   912.256   926.993   939.341   951.100   960.521   961.175   943.048   943.421   951.826   950.704   937.067   939.713   938.619   921.941   917.450   917.589   917.663   923.656   925.455   916.931   905.253   899.502   911.097   909.879   905.854   906.941   914.969   920.414   919.249   929.916
1025.642  1010.999   989.890   972.804   956.628   933.609   911.053   897.209   875.235   860.142   848.875   851.769   874.373   886.723   884.012   899.041   917.631   938.158   953.466   966.505   980.263   976.107   955.009   935.752   916.159   915.019   916.842   919.095   929.983   941.233   960.525   965.097   950.481   931.703   921.076   917.657   917.594   927.165   928.488   906.259   884.270   869.639   866.960   868.312   877.993   881.890   877.890   873.998   872.286   874.419   864.487   840.522   818.725   818.970   836.504   842.698   844.722   840.712   823.816   805.851   805.707   816.763   827.781   816.104   797.379   793.950   801.601   791.241   784.893   779.811   785.136   792.567   797.342   798.543   801.777   810.624   809.592   808.035   802.566   811.177   807.020   806.080   792.182   802.953   805.555   804.458   812.047   825.042   815.157   808.580   819.786   832.469   836.433   821.328   823.028   827.173   833.555   843.420   862.345   848.801   844.278   864.254   889.868   913.984   919.391   902.977   882.677   878.182   889.286   921.687   942.338   943.860   938.924   947.017   937.455   912.270   918.249   901.492   880.677   873.470   890.400   892.729   897.194   907.097   924.557   947.449   965.272   954.505   934.815   936.142   933.375   947.662   944.583   929.644   939.018   950.866   932.398   914.230   918.012   932.343   949.629   958.469   966.599   961.213   946.583   953.335   957.746   949.047   946.263   945.213   928.950   929.120   930.260   929.872   930.026   931.357   917.620   906.884   902.668   909.374   913.899   912.051   910.861   909.568   916.196   925.350   928.710   922.951
1033.290  1016.450   999.706   981.372   960.430   941.933   919.629   901.305   893.070   875.312   853.008   869.525   893.600   904.171   904.996   900.834   929.905   949.115   966.775   979.445   993.991   977.823   958.759   938.715   917.878   931.902   933.097   924.415   948.188   954.546   972.096   969.682   956.195   951.256   930.960   938.724   936.417   940.384   925.877   899.093   889.822   891.018   890.892   891.282   894.797   883.650   891.146   891.743   890.896   876.552   857.624   832.712   834.591   836.695   845.133   854.140   853.651   843.582   825.195   809.755   805.707   826.140   827.584   807.318   800.806   813.870   803.201   791.259   784.237   784.612   786.368   791.528   799.807   803.389   808.295   811.865   812.645   809.644   809.337   814.023   811.325   811.523   798.218   802.868   813.184   809.972   816.187   829.141   828.908   822.978   821.834   838.076   847.276   831.401   822.701   832.279   841.397   850.831   871.054   869.959   857.672   860.860   888.806   916.330   937.312   919.734   898.091   889.060   898.203   922.571   948.828   958.307   954.215   961.372   938.003   927.308   929.948   901.636   881.373   879.406   901.346   918.186   921.133   917.694   922.827   944.827   967.421   955.580   938.686   950.432   942.183   958.737   953.539   943.845   949.679   952.801   930.821   917.755   928.046   942.955   953.161   968.023   971.398   959.464   954.546   961.234   963.247   956.539   950.252   937.138   938.700   944.172   941.418   933.319   924.923   922.447   913.823   906.006   912.447   912.996   915.876   915.246   913.561   914.110   919.827   928.935   931.831   920.884
1039.521  1022.571  1004.529   982.946   969.628   959.875   946.181   923.616   910.268   882.664   867.446   891.780   920.309   925.685   928.326   924.908   934.206   957.497   974.283   993.229  1000.682   978.040   961.682   942.337   930.181   943.368   951.467   936.287   959.348   974.292   982.709   978.186   971.991   960.718   953.332   957.329   957.295   941.984   917.747   905.242   908.158   916.372   916.312   916.706   905.703   894.491   906.772   905.333   886.773   868.285   848.766   843.763   852.232   848.452   857.952   865.077   850.830   837.402   823.071   815.747   807.803   831.618   815.806   801.837   810.357   818.160   803.186   792.090   788.949   789.234   791.945   791.878   796.195   801.952   808.679   813.249   813.476   809.337   811.932   817.160   817.324   816.586   810.730   799.648   811.690   820.487   818.504   826.740   841.108   841.141   830.987   845.428   861.359   841.438   827.628   834.161   839.633   853.292   876.323   891.067   887.725   878.921   891.775   920.330   947.420   942.124   917.007   904.019   909.553   931.252   956.524   977.416   972.199   967.345   947.340   949.768   933.931   903.735   883.458   888.853   911.513   936.494   941.928   941.059   929.426   937.808   961.446   957.150   952.109   960.855   954.951   968.531   965.319   962.840   967.005   952.355   935.692   921.894   934.395   955.589   967.127   974.168   973.770   960.573   966.867   969.844   968.674   953.255   941.284   948.570   951.959   942.975   930.538   919.164   917.296   914.504   909.759   909.236   921.202   916.581   918.077   919.453   916.178   920.302   918.859   929.521   930.531   917.079
1044.069  1030.726  1013.776  1000.388   991.761   979.798   960.849   941.051   913.526   887.234   890.215   917.867   935.727   942.838   951.144   951.948   942.749   964.113   985.942  1006.464  1005.863   982.650   963.955   948.237   948.004   959.542   963.648   952.139   973.130   992.414   997.316   996.547   990.124   972.041   972.468   975.954   961.402   938.432   922.676   925.516   932.890   938.087   940.193   920.058   900.977   913.522   922.701   906.725   889.797   871.681   857.974   864.868   870.484   871.279   874.728   860.737   846.007   836.649   824.206   819.275   810.459   827.215   806.194   807.086   820.808   813.104   798.926   790.319   790.357   793.680   794.423   798.777   800.018   801.008   809.071   814.052   816.688   814.526   815.723   820.468   822.238   821.347   824.088   817.087   809.352   819.503   832.246   837.132   852.536   856.825   842.348   857.912   870.598   848.193   835.227   840.896   851.715   870.170   880.489   903.911   912.013   902.211   900.627   924.442   953.343   959.611   935.751   920.024   925.843   945.706   974.130   988.973   988.963   977.845   968.250   953.591   927.385   897.356   889.298   895.453   917.429   945.540   961.605   956.773   943.918   946.143   965.327   960.688   967.110   971.376   970.247   981.619   980.965   978.803   972.733   952.014   934.995   926.838   937.903   954.117   971.073   983.256   979.512   971.292   975.872   975.674   963.642   951.578   955.752   957.879   945.726   931.290   920.505   919.708   918.726   918.236   919.035   924.990   920.964   917.887   921.232   921.345   919.331   928.595   925.391   930.450   930.189   919.002
1050.455  1043.159  1034.033  1023.682  1012.507   993.043   960.192   923.199   919.020   905.101   909.328   958.823   970.890   963.417   966.446   975.705   966.163   973.922   998.097  1022.056  1009.097   987.457   969.622   955.392   964.566   978.843   981.304   972.296   983.302  1008.128  1016.607  1015.315  1006.713   986.603   995.046   979.554   959.711   946.345   939.935   954.985   961.743   956.069   941.284   920.166   924.169   932.370   919.385   904.700   888.038   871.628   874.471   883.681   883.333   887.741   876.801   862.794   850.535   839.647   830.085   817.000   823.474   824.007   806.722   820.743   814.283   800.237   797.593   795.616   799.050   796.850   796.684   799.727   804.135   804.847   806.044   813.694   819.557   821.525   822.230   822.885   826.357   827.630   833.703   832.153   818.353   819.122   830.881   845.500   862.126   873.403   861.583   868.058   879.534   856.954   843.241   846.015   849.755   870.811   893.383   909.682   928.309   931.694   920.504   939.392   962.665   978.557   953.779   939.316   943.679   960.641   986.955  1001.929  1005.370   991.070   972.630   948.803   923.076   896.111   895.372   907.068   929.382   959.922   977.737   961.313   949.334   958.616   977.667   966.800   979.254   986.884   984.861   995.841   994.497   979.758   963.625   946.350   931.140   937.592   953.674   968.553   977.183   986.339   987.148   984.650   984.122   973.452   961.552   963.814   961.149   954.437   939.596   925.561   931.110   931.958   928.504   935.787   932.035   928.982   921.736   919.829   923.822   921.965   922.010   933.519   939.220   940.973   928.792   926.727
