ncols  240
nrows  39
xllcorner     -32410
yllcorner    -159140
cellsize     10.000
NODATA_value     0.000
503.518   498.545   494.215   492.050   491.841   495.106   498.549   499.559   499.738   501.784   504.618   506.426   507.314   507.748   507.484   506.961   506.907   506.246   504.234   501.582   498.528   494.774   490.676   489.881   490.347   491.203   490.730   488.333   485.057   482.754   481.051   479.574   477.431   473.474   468.332   463.787   461.528   461.533   461.021   458.949   454.269   450.333   446.687   444.497   444.218   444.180   444.856   446.245   447.906   449.249   450.423   451.657   452.591   451.891   448.522   443.158   435.488   425.945   418.192   416.329   416.636   416.424   415.377   413.130   410.635   407.783   404.538   400.672   396.321   392.273   389.608   387.460   384.235   380.213   375.875   371.770   371.099   375.667   377.038   373.320   367.278   360.471   352.129   343.974   337.614   335.671   338.679   343.074   345.602   344.162   338.662   332.622   328.819   328.348   334.249   339.809   339.018   334.639   337.753   337.834   337.677   338.898   337.057   332.641   327.157   321.312   314.630   313.907   319.506   324.853   327.415   328.502   328.589   328.284   328.202   327.343   326.360   324.818   323.078   321.090   317.447   312.024   307.686   306.522   307.087   308.334   308.263   307.042   305.316   302.974   299.759   296.314   294.127   291.710   289.338   284.407   279.775   275.099   271.518   274.337   275.940   275.445   273.675   273.405   274.508   274.567   273.422   271.993   270.524   268.892   267.006   264.990   262.821   260.384   257.352   254.762   252.489   250.584   249.504   247.536   245.451   244.231   243.961   243.317   243.067   244.077   245.762   245.735   243.496   240.818   237.976   236.129   236.891   237.978   238.775   239.613   239.811   239.184   237.655   233.795   229.492   227.365   225.526   222.157   217.915   213.413   211.116   212.979   217.304   221.161   222.957   224.386   225.430   224.365   223.071   222.412   221.845   221.192   220.863   220.342   218.968   217.217   215.348   213.389   211.290   209.247   207.300   205.332   203.430   201.545   199.567   197.283   194.961   193.031   193.226   193.198   194.852   195.888   196.928   197.905   198.978   200.404   202.410   203.398   203.307   202.940   202.806   203.590   204.765   205.187   204.111   203.110   202.165   201.222   200.625   199.621   198.830   198.766   198.470   197.891
500.266   495.471   490.377   487.326   486.590   490.875   494.219   494.885   494.993   497.052   499.853   501.726   502.530   502.681   501.858   500.763   501.081   501.109   499.639   497.481   495.039   491.912   487.968   485.492   485.578   486.205   485.974   484.502   481.210   476.557   472.599   471.415   471.247   469.166   465.061   459.640   455.102   455.825   456.865   455.993   451.815   447.455   443.622   441.422   441.253   441.420   441.673   442.667   443.822   443.031   442.812   444.378   445.761   445.743   443.636   439.047   432.050   424.110   416.752   410.724   410.107   410.823   410.248   408.004   405.633   402.742   399.951   396.779   393.080   389.044   385.395   382.749   380.904   378.036   372.706   367.899   366.112   370.944   373.425   372.784   368.967   363.585   356.786   347.497   338.285   329.763   329.350   334.543   339.634   341.800   339.312   332.947   326.612   325.088   330.669   335.081   332.984   329.556   333.439   332.795   332.285   334.730   334.575   331.646   327.076   321.378   314.913   310.828   313.543   319.480   323.198   324.833   325.415   326.135   326.413   325.566   324.765   324.356   323.309   321.327   318.614   313.848   309.368   305.358   303.081   303.722   304.588   304.378   303.457   301.824   299.800   297.594   294.978   292.853   290.734   288.489   283.454   278.085   272.965   269.369   269.023   268.622   268.141   269.641   271.450   272.565   272.163   270.653   269.129   267.743   266.161   264.366   262.453   259.944   257.014   253.208   250.841   247.936   244.967   242.052   238.857   237.594   237.099   237.768   239.257   241.050   242.926   243.913   242.903   240.462   237.745   235.212   234.835   235.854   237.073   237.911   238.187   237.785   236.341   233.621   230.313   224.613   222.330   220.869   217.955   213.972   210.124   209.389   213.027   217.809   221.095   222.717   223.694   223.371   221.914   220.870   220.455   219.739   219.339   218.810   217.671   216.011   214.250   212.495   210.708   208.857   206.886   204.918   203.097   201.275   199.333   197.019   194.667   191.074   191.282   192.802   194.660   195.895   197.077   198.187   199.572   200.886   201.711   201.964   201.979   201.796   201.918   202.835   203.731   204.333   204.033   203.266   202.381   201.943   201.779   200.235   199.590   199.706   199.335   198.707
497.294   493.183   488.500   483.122   481.540   486.200   489.596   490.203   490.509   492.851   495.456   497.105   497.734   497.495   496.340   495.144   495.619   496.394   495.433   493.428   491.229   488.726   484.585   481.291   481.386   482.025   481.487   480.305   477.031   472.250   466.856   463.711   463.484   463.139   460.521   455.414   450.172   450.444   452.533   452.767   451.315   446.955   441.299   438.981   438.818   438.921   439.098   439.248   439.807   437.581   436.742   438.010   438.226   438.164   437.437   433.805   427.898   421.281   415.909   410.235   405.401   406.348   405.781   401.470   399.177   397.245   394.466   391.998   389.147   386.161   383.076   379.186   375.928   374.294   370.952   364.682   360.940   365.280   369.708   370.444   368.089   364.091   358.951   349.706   340.634   330.856   323.935   326.348   332.896   337.452   337.458   333.430   327.600   322.670   324.680   329.099   327.476   326.368   330.766   330.353   329.021   332.192   333.341   331.350   327.096   322.362   317.104   311.486   310.303   314.161   318.753   321.633   322.961   324.188   324.512   323.883   323.229   322.911   322.178   321.106   317.963   313.612   309.354   305.262   301.978   300.240   300.310   300.778   300.518   299.596   298.367   297.104   295.590   293.418   291.547   289.792   285.480   281.078   276.572   271.191   267.793   265.642   263.930   264.827   267.042   269.507   269.871   268.963   268.037   266.506   264.589   262.606   260.786   258.688   255.886   251.876   248.631   245.401   241.925   238.126   234.263   231.888   232.629   234.771   236.795   238.670   240.470   241.752   241.639   239.783   236.931   234.064   232.977   234.167   235.554   236.210   236.563   236.201   235.120   233.206   230.659   224.004   218.922   217.189   216.349   213.862   209.879   207.818   209.922   214.228   218.326   221.010   221.997   222.295   221.059   219.512   218.608   217.902   217.441   216.948   216.240   214.769   213.092   211.411   209.771   208.142   206.388   204.530   202.673   200.706   198.345   195.564   192.670   190.051   190.269   192.696   194.770   195.791   197.020   198.232   199.459   200.305   200.554   200.558   200.612   200.611   200.992   201.970   202.729   203.408   203.702   203.354   203.075   202.942   202.939   201.621   201.342   201.130   199.951   199.030
494.050   490.630   485.631   479.560   477.075   479.926   482.243   483.758   486.080   489.074   491.306   492.502   492.824   492.100   490.713   489.979   490.741   491.779   491.125   489.098   486.750   484.177   480.344   477.736   477.968   478.684   476.657   473.334   469.875   466.382   461.872   456.681   455.170   456.290   454.742   450.458   445.015   444.021   446.748   449.292   448.845   445.717   441.341   438.609   436.778   436.440   436.523   435.877   435.025   432.674   431.366   431.576   431.357   431.130   430.970   428.571   422.708   416.601   412.906   409.442   403.348   402.865   403.787   399.923   394.655   392.021   389.342   386.408   383.882   381.828   379.708   376.739   372.790   369.270   366.857   362.793   357.873   359.813   363.899   365.680   364.391   361.642   356.395   348.576   341.425   332.058   323.386   321.486   327.458   333.428   334.958   333.206   327.918   321.094   319.399   324.054   323.091   321.899   325.928   324.809   325.902   329.706   330.542   329.719   327.027   323.592   319.815   314.403   309.612   309.387   312.914   316.968   320.404   322.179   322.548   322.167   321.812   321.513   320.853   319.889   317.336   313.631   309.706   306.282   303.260   300.675   298.824   297.343   296.531   296.323   295.783   295.043   294.571   293.487   291.807   290.192   287.214   283.619   279.939   275.073   270.043   267.398   265.361   263.566   262.397   263.157   264.318   264.975   265.383   265.034   263.543   261.357   259.140   256.917   254.679   251.506   247.747   243.735   239.740   235.319   230.479   226.495   228.915   232.323   234.570   236.257   237.525   238.621   239.333   238.420   235.640   232.680   231.297   232.654   234.086   234.648   234.941   234.532   233.667   232.300   229.917   223.170   215.897   212.962   213.049   212.421   209.462   206.481   207.004   210.857   215.109   218.460   220.127   220.721   219.883   218.209   216.817   215.965   215.422   214.948   214.542   213.488   211.951   210.293   208.714   207.200   205.530   203.781   202.088   199.872   196.806   193.562   190.604   189.503   190.061   193.138   195.004   195.679   196.800   197.918   198.774   199.238   199.380   199.418   199.558   199.808   200.420   201.388   202.115   202.846   203.461   203.617   203.884   203.979   204.073   203.522   203.529   202.493   200.319   199.229
490.579   486.758   482.128   476.179   471.777   473.575   476.045   479.427   482.790   485.193   486.161   487.152   487.843   487.547   486.671   485.808   485.641   485.349   484.062   483.419   481.840   479.653   476.824   474.238   474.840   476.000   473.857   470.092   465.172   459.837   454.527   449.363   447.992   449.561   449.334   446.713   441.506   439.390   442.798   445.817   445.800   444.787   441.544   438.763   436.310   434.527   433.566   432.432   430.773   429.019   427.146   426.390   426.918   427.055   426.476   425.062   420.952   414.526   409.425   406.033   401.470   399.825   401.719   399.154   393.609   389.970   386.898   383.647   379.948   377.148   375.152   372.608   369.008   364.922   362.051   360.218   355.608   353.850   357.760   360.534   360.295   358.003   352.881   346.997   341.420   332.550   324.305   319.256   323.263   329.914   332.603   332.030   327.732   320.935   316.129   316.661   317.314   315.528   320.582   318.991   323.040   326.925   327.498   327.031   326.028   324.198   321.588   317.060   310.988   306.875   307.558   311.895   316.733   319.767   320.384   320.372   320.201   319.770   318.828   317.955   316.385   313.375   310.049   307.227   304.623   302.086   299.405   296.506   294.358   293.342   292.757   292.479   292.674   292.661   291.558   289.968   287.800   284.976   282.040   278.639   273.676   270.901   269.099   266.182   262.084   259.573   259.237   260.610   262.386   263.045   262.317   260.404   257.857   255.186   253.125   250.915   247.204   242.784   238.361   233.505   227.633   222.199   224.426   228.867   231.886   233.296   233.875   234.765   236.109   236.296   234.231   231.286   229.637   231.189   232.568   233.125   233.320   232.831   232.032   230.866   227.834   221.223   213.025   208.758   208.716   209.717   208.178   204.700   204.130   207.725   211.779   215.173   217.698   218.341   217.933   216.540   214.958   213.980   213.377   212.931   212.655   212.090   210.805   209.222   207.676   206.098   204.249   202.519   201.048   198.557   194.948   191.549   189.325   189.188   190.443   194.062   195.239   195.683   196.551   197.369   197.911   198.340   198.617   198.823   199.180   199.721   200.490   201.385   202.122   202.954   203.727   204.269   204.568   204.879   205.190   205.283   205.147   203.140   200.686   199.844
486.329   482.375   478.557   473.489   468.089   469.440   471.376   475.031   478.769   480.501   480.655   481.580   482.700   482.856   482.387   481.555   480.228   478.181   476.724   477.021   476.626   475.169   472.949   470.448   471.663   473.299   471.897   468.126   462.845   455.454   448.801   443.654   442.375   443.775   443.985   443.031   438.845   435.288   439.126   442.383   442.919   443.063   440.937   438.417   435.790   433.174   431.503   429.814   427.598   426.153   424.131   422.572   423.310   424.001   422.892   421.828   420.000   414.872   409.388   405.062   399.929   397.101   398.281   397.105   393.703   390.371   387.013   383.529   379.282   375.031   371.270   367.434   363.886   360.575   357.242   355.925   353.180   349.012   352.057   355.596   356.179   354.118   349.685   345.127   339.855   331.600   324.776   318.014   320.158   327.030   330.302   330.158   326.926   321.209   315.372   311.361   311.795   309.896   314.589   314.567   320.920   324.430   324.517   323.500   323.720   323.645   322.140   318.718   313.329   307.045   304.428   307.708   312.914   316.943   317.831   318.145   318.030   317.450   316.155   315.478   314.854   312.715   310.201   307.728   305.327   303.093   300.872   298.097   294.797   291.938   290.330   289.859   290.114   290.810   290.868   289.381   287.160   284.868   282.425   280.307   276.797   273.957   272.310   270.703   266.658   261.630   257.626   257.387   259.282   260.073   260.033   258.978   256.743   253.855   251.197   249.145   245.804   241.955   237.506   232.478   225.991   219.804   218.991   223.826   228.254   229.552   229.826   230.939   232.594   233.657   232.918   230.100   227.946   229.601   230.908   231.502   231.687   231.083   230.212   228.745   224.592   218.228   209.936   204.601   204.292   206.206   205.693   202.571   201.571   204.587   208.546   211.794   214.373   215.061   215.025   214.019   212.540   211.837   211.248   210.915   210.779   210.407   209.514   208.191   206.688   204.877   202.756   200.908   199.126   196.352   192.991   189.784   188.477   189.242   191.176   194.874   195.460   195.848   196.388   196.881   197.286   197.798   198.425   199.138   199.790   200.445   201.241   202.093   202.912   203.647   204.313   204.931   205.313   205.779   206.243   205.810   204.850   202.661   201.825   201.349
482.161   478.163   474.947   470.340   464.325   466.381   467.999   470.963   474.255   475.394   475.157   475.529   476.489   477.084   477.041   476.336   474.442   471.420   469.775   470.404   471.268   470.663   468.316   465.909   467.359   469.536   469.264   465.937   461.384   453.567   446.271   440.692   438.368   438.595   438.767   438.950   435.750   431.535   435.745   439.131   440.415   440.474   439.086   437.316   434.773   432.185   430.336   428.130   425.541   423.701   421.895   419.555   419.277   420.630   419.611   417.852   417.564   415.355   411.888   407.688   400.151   395.883   394.504   393.435   392.085   390.336   387.333   384.106   381.049   376.048   369.596   363.182   358.431   356.009   353.147   350.354   349.822   346.157   346.689   350.676   351.865   350.445   347.057   342.660   336.736   329.469   323.970   316.334   317.870   324.708   327.835   328.067   325.647   321.079   317.014   312.852   309.394   307.833   308.138   312.230   319.693   322.743   321.493   319.382   320.166   321.744   321.778   319.485   315.094   309.057   304.343   305.297   310.563   313.936   314.748   315.078   315.034   314.534   313.312   312.572   312.654   311.843   310.132   308.118   306.060   303.990   301.848   299.412   296.394   293.081   289.751   287.001   286.477   288.128   289.709   288.711   286.359   283.650   281.278   279.459   278.005   276.412   274.492   272.498   269.570   265.089   259.817   255.006   253.678   255.345   256.087   255.802   254.815   252.761   249.797   246.612   243.219   240.062   236.078   231.794   225.536   219.380   216.481   219.105   223.426   225.500   226.718   228.690   230.584   231.489   230.984   229.037   226.828   227.312   228.993   229.875   229.983   228.994   227.015   224.391   221.628   215.453   208.011   201.081   199.871   202.162   203.022   201.022   199.048   201.024   205.168   208.474   211.061   211.841   212.048   211.503   210.485   209.733   208.859   208.349   208.060   207.533   207.113   206.750   205.490   203.531   201.522   199.204   196.467   193.743   191.087   188.944   187.972   189.172   191.189   194.964   195.841   196.466   197.105   197.611   198.126   198.735   199.389   200.061   200.761   201.496   202.260   203.035   203.828   204.615   205.230   205.671   206.117   206.518   206.990   205.881   204.764   204.270   203.999   203.630
478.861   474.424   471.063   465.815   459.511   463.088   465.024   467.533   469.848   470.502   470.013   469.192   469.198   470.148   470.646   469.989   468.455   465.790   463.307   464.059   465.919   466.171   463.042   460.181   460.902   463.789   464.726   462.719   458.921   453.022   446.685   440.747   435.894   433.460   433.959   434.594   431.252   428.594   433.521   436.245   438.096   437.648   436.013   435.703   433.782   431.239   429.017   426.774   424.187   421.495   419.602   416.291   414.284   416.571   416.734   413.029   412.533   411.891   410.176   409.476   404.694   398.925   394.323   389.938   386.000   384.554   382.720   381.573   380.051   376.442   370.591   363.249   356.331   352.665   350.809   346.585   345.022   343.564   339.998   344.389   346.809   346.537   343.942   339.709   335.173   329.128   323.306   314.532   315.945   322.478   325.377   326.384   325.329   322.543   319.641   315.990   311.762   307.791   306.205   310.374   317.085   319.928   318.646   315.068   316.416   319.114   320.219   318.432   314.274   308.503   302.525   301.310   306.654   311.092   311.682   312.074   312.047   311.689   310.470   309.883   310.342   309.913   308.713   307.238   305.718   303.978   301.923   299.836   297.550   294.765   291.901   289.379   286.670   283.567   281.838   282.706   282.923   283.059   279.994   277.932   276.391   274.931   273.664   272.152   269.832   266.043   261.964   258.437   254.597   251.403   250.784   251.491   251.794   251.205   248.849   245.965   242.778   239.723   235.759   232.119   228.347   221.916   216.574   215.724   219.357   222.288   223.936   225.493   226.972   228.092   227.772   226.399   225.014   224.693   226.147   227.445   227.410   226.241   224.577   221.928   217.589   211.803   205.597   198.751   194.479   195.669   198.481   196.375   192.904   196.165   202.099   205.391   208.091   208.996   209.678   209.455   208.128   207.046   206.093   205.071   204.589   204.205   203.998   204.195   203.935   202.675   200.761   197.767   193.980   191.357   189.581   188.275   187.476   188.677   190.232   193.369   195.337   196.434   197.454   198.222   198.957   199.601   200.242   200.903   201.646   202.432   203.164   203.862   204.574   205.277   205.882   206.465   206.928   207.299   207.549   206.460   205.785   205.627   205.407   205.098
476.529   470.674   466.313   460.296   456.528   459.774   460.284   463.259   465.738   466.308   465.739   464.796   464.362   464.658   464.998   464.657   463.171   460.381   457.594   458.557   460.637   462.306   458.331   452.945   452.797   456.279   459.187   458.926   455.856   451.610   446.835   441.592   436.169   431.111   429.657   431.533   429.040   426.280   431.503   433.807   435.512   433.987   431.813   431.994   432.331   430.629   428.099   425.430   422.926   420.110   417.049   413.617   410.585   410.989   413.382   411.691   408.927   408.434   405.194   403.568   404.483   401.100   396.582   392.197   387.512   381.654   377.405   376.322   375.945   373.811   369.084   362.119   355.277   349.655   344.296   340.994   339.459   341.236   337.797   336.783   340.074   341.162   339.512   336.660   332.948   328.431   322.687   313.338   313.138   319.654   323.409   324.237   324.067   323.112   321.058   317.318   311.489   306.318   302.585   307.865   313.688   317.283   314.883   310.839   312.995   315.998   317.417   316.925   313.997   308.218   301.239   298.801   303.086   307.153   308.539   309.207   309.151   308.594   307.695   307.134   307.478   307.326   306.739   305.680   304.514   303.130   301.444   299.623   297.704   295.596   293.478   291.409   288.640   284.671   280.929   279.535   279.725   280.807   278.781   276.816   274.777   273.222   272.241   271.110   269.389   266.848   263.787   261.126   257.383   252.190   248.521   247.354   247.205   246.879   245.382   243.595   241.286   238.478   235.709   233.408   230.977   225.473   218.668   213.429   214.453   217.598   219.578   221.047   222.840   224.183   223.863   223.043   222.585   222.346   223.381   224.818   224.731   223.658   222.030   217.978   212.724   208.190   203.792   196.866   190.370   189.820   192.582   191.243   188.769   192.774   199.015   202.780   205.228   206.466   207.623   207.696   206.184   204.812   203.581   202.237   200.578   200.232   201.019   201.699   201.812   201.165   199.182   195.356   191.326   189.373   188.089   187.201   186.972   188.321   189.702   193.166   195.174   196.389   197.574   198.525   199.388   200.042   200.619   201.226   201.888   202.595   203.308   204.057   204.841   205.498   206.044   206.665   207.364   207.986   208.117   207.402   206.911   206.635   206.324   205.944
474.222   468.598   462.931   457.607   453.404   455.060   457.101   459.729   461.767   462.087   461.296   460.001   459.266   459.302   459.499   459.038   456.947   453.719   451.872   454.350   455.764   455.835   451.435   447.071   446.337   450.184   453.782   454.300   452.408   449.157   445.369   440.970   436.237   431.799   427.898   425.480   424.706   424.576   429.629   431.899   433.397   431.808   428.449   427.694   428.498   428.636   426.711   424.142   421.609   419.034   416.243   413.470   410.232   408.405   409.860   410.184   407.090   404.724   402.793   398.866   400.404   400.614   396.672   392.985   388.739   383.210   376.963   371.958   370.844   369.819   365.981   360.104   354.170   348.168   340.636   334.467   332.885   336.616   336.186   332.313   331.642   334.247   333.871   332.333   330.122   326.924   322.517   313.143   310.092   316.333   321.477   322.123   322.237   322.059   320.678   316.675   310.446   305.016   300.160   304.536   311.304   314.984   312.711   308.616   310.066   312.956   314.623   314.822   313.302   308.827   301.820   297.515   299.741   303.857   305.589   306.391   306.195   305.537   304.837   304.369   304.498   304.600   304.377   303.747   302.825   301.760   300.369   298.722   297.035   295.348   293.639   291.862   289.674   286.476   282.382   279.465   278.102   277.449   276.383   274.882   273.005   271.474   269.990   268.266   266.608   265.515   263.932   262.248   259.385   254.234   249.219   246.244   244.303   242.688   240.817   239.716   237.924   235.582   233.913   232.760   231.218   227.585   221.213   213.548   210.525   211.856   213.977   216.001   218.434   220.221   220.313   220.013   220.227   220.135   220.805   222.178   222.153   220.884   218.688   213.496   208.751   205.408   202.295   195.176   187.709   185.254   187.157   187.222   186.067   189.883   195.864   200.178   202.738   204.290   205.760   206.161   204.733   203.304   201.848   200.067   195.896   195.137   196.975   197.725   197.408   197.000   195.432   192.065   189.012   187.765   186.572   185.833   186.672   188.405   190.197   194.336   195.562   196.525   197.535   198.441   199.266   199.908   200.417   200.936   201.469   202.060   202.775   203.639   204.564   205.232   205.638   206.089   206.919   207.798   208.114   207.745   207.107   206.935   206.747   206.305
472.350   467.236   461.455   455.782   450.697   451.839   454.370   456.610   457.888   457.346   455.678   454.211   453.995   454.289   454.150   453.267   451.009   448.023   446.921   449.975   450.831   449.641   445.568   441.747   440.258   442.873   446.667   448.295   447.493   445.424   442.755   439.717   436.430   433.071   428.629   423.422   421.082   422.375   427.096   429.948   431.290   430.070   426.095   423.037   423.537   424.952   424.618   422.649   420.151   417.631   415.046   412.551   409.163   405.501   405.064   406.764   404.605   400.926   401.025   396.428   394.180   395.359   393.747   390.358   386.097   381.958   376.193   369.219   365.919   364.738   362.155   357.929   353.059   347.090   338.769   329.936   326.710   331.791   333.943   330.530   325.976   326.827   327.790   327.746   327.019   324.987   322.017   313.361   307.507   311.582   317.372   319.071   319.739   319.821   318.841   315.355   309.784   304.357   298.737   300.890   308.738   312.768   311.557   307.343   307.048   309.815   311.905   312.356   311.689   308.700   302.513   296.463   296.128   300.779   302.944   303.614   303.189   302.541   301.975   301.632   301.492   301.797   301.741   301.528   300.869   300.016   298.806   297.284   295.713   294.143   292.508   290.860   289.201   287.034   283.866   281.212   278.486   275.571   274.281   272.839   271.569   270.089   267.396   264.185   262.037   262.036   262.087   261.399   259.369   255.602   251.604   248.075   244.386   241.009   238.016   236.471   234.263   232.193   230.480   229.063   227.599   226.132   222.381   215.548   209.120   206.720   208.171   211.020   214.036   216.543   217.508   217.652   218.020   217.735   218.329   219.471   219.519   217.662   214.563   209.889   206.548   203.556   200.402   193.454   185.880   181.959   183.696   184.922   183.279   186.190   192.550   197.165   200.982   202.559   204.057   204.758   203.551   202.314   200.989   198.136   190.768   188.909   190.651   190.844   189.871   189.451   189.384   188.844   187.698   186.393   185.166   184.641   186.738   188.887   191.481   194.958   195.977   196.665   197.325   197.990   198.652   199.249   199.756   200.239   200.826   201.495   202.243   203.094   203.895   204.448   204.645   204.945   204.992   205.400   206.155   205.809   205.578   205.752   206.185   206.072
470.595   466.074   460.999   454.668   449.029   449.248   451.599   453.475   454.108   452.868   450.556   448.779   448.683   449.190   449.077   448.143   446.089   443.408   442.085   445.057   445.502   443.734   439.591   435.788   434.644   436.560   440.107   442.005   441.749   440.605   439.203   437.841   436.011   433.467   429.797   424.144   419.071   419.560   424.224   427.573   427.970   427.631   424.388   420.005   418.496   419.944   421.169   420.236   418.290   415.828   413.122   409.896   405.964   401.647   399.911   402.283   401.476   397.316   397.914   395.382   389.588   388.199   387.511   384.272   380.201   376.963   373.200   367.431   361.816   358.837   357.579   355.509   351.281   345.157   337.603   328.461   321.990   327.070   330.476   329.806   324.148   320.561   321.689   323.246   323.727   322.847   320.594   313.371   305.813   305.813   311.032   314.991   316.681   317.107   316.321   314.130   309.757   304.197   297.682   297.310   305.007   310.157   310.243   305.731   303.461   306.113   308.797   309.689   309.103   306.619   301.593   294.839   292.155   297.167   300.437   300.843   300.272   299.688   299.326   299.016   298.447   298.781   298.918   299.101   298.790   298.002   296.957   295.561   293.963   292.361   290.758   289.262   287.897   286.317   284.458   282.638   280.388   277.916   275.084   272.424   271.223   269.558   265.539   260.897   258.139   258.118   258.803   258.491   257.468   256.004   253.415   249.875   246.430   243.033   240.550   237.482   234.116   231.359   228.145   223.856   219.728   219.771   220.262   216.225   210.892   205.082   203.749   206.560   210.109   213.279   214.575   215.001   214.789   214.677   215.743   216.291   216.105   214.403   211.087   207.630   204.379   201.173   197.165   191.270   183.613   179.816   181.732   183.010   181.156   182.476   188.596   194.134   200.213   201.539   202.667   203.216   202.163   200.855   199.453   194.799   187.628   184.141   184.924   185.981   186.188   186.776   187.712   187.704   186.529   185.124   183.921   183.851   186.048   188.408   190.989   194.082   195.313   196.017   196.611   197.261   197.864   198.439   198.895   199.486   200.220   200.967   201.725   202.499   202.771   201.964   201.117   200.617   200.520   200.824   200.963   201.151   203.056   204.916   205.618   205.503
468.831   464.835   460.676   454.106   448.312   446.542   448.543   450.174   450.543   449.270   447.008   444.701   443.617   443.906   444.373   443.860   442.032   439.094   436.706   439.396   439.696   437.587   432.986   429.415   429.987   432.838   435.733   436.514   436.075   435.300   435.145   435.327   434.433   432.343   429.397   424.530   418.510   416.635   421.544   424.671   422.945   423.836   422.815   419.878   414.501   414.365   415.846   416.203   415.751   413.776   410.704   405.552   400.610   397.372   395.895   398.384   398.710   394.199   392.212   393.683   390.227   384.589   378.972   376.379   374.423   371.872   368.824   364.854   358.668   352.542   351.604   351.993   347.609   341.280   336.267   328.935   319.200   320.789   325.817   327.686   322.927   317.636   315.459   318.043   319.974   320.373   318.141   312.689   305.013   301.645   305.984   311.460   313.554   314.745   314.265   312.321   309.104   303.562   296.543   293.596   300.831   306.317   307.671   303.490   299.443   300.990   304.073   306.460   306.401   304.241   299.893   293.088   289.440   293.245   297.104   297.871   297.886   297.663   297.372   296.831   295.434   295.276   295.875   296.860   296.644   295.914   295.023   293.735   292.213   290.652   289.081   287.662   286.470   285.194   283.506   282.223   280.469   278.076   275.397   272.741   271.045   269.913   266.264   262.518   259.427   255.522   253.600   253.681   253.740   252.952   251.259   249.235   246.973   244.194   241.552   238.779   236.215   233.380   230.855   227.328   222.536   218.030   215.126   213.455   211.173   206.085   201.667   201.709   205.546   209.706   211.732   212.236   211.901   212.163   212.911   213.413   212.844   210.851   207.933   204.771   201.561   197.940   194.183   189.269   182.597   179.184   180.599   181.662   180.230   180.861   185.395   190.111   195.660   199.332   201.134   201.610   201.060   199.420   196.520   192.170   185.227   181.177   180.787   181.780   182.677   183.817   185.341   186.127   185.456   184.037   182.839   182.851   185.120   187.505   189.997   192.379   193.955   195.229   195.941   196.548   197.126   197.605   198.008   198.657   199.412   200.110   200.891   201.753   201.983   200.945   199.830   199.106   198.957   199.590   199.836   200.242   202.194   203.875   203.886   203.838
467.163   463.507   459.784   453.823   447.659   443.515   445.227   446.915   447.417   446.731   444.880   442.149   439.285   438.923   440.037   439.532   437.364   433.350   430.488   432.819   433.773   430.554   427.953   425.922   427.166   429.880   431.895   432.092   431.019   430.805   431.615   432.555   432.348   430.666   427.418   422.612   417.689   415.155   419.092   421.936   419.277   419.983   421.118   418.394   413.514   409.250   409.268   410.559   412.421   411.364   406.326   398.587   393.011   391.638   391.208   392.216   394.717   391.826   387.966   388.952   388.001   384.133   378.247   371.075   368.223   365.991   363.638   360.325   355.399   348.868   346.019   345.707   342.177   336.475   332.036   326.847   318.547   315.852   321.806   324.183   322.657   318.143   311.166   308.677   312.504   315.191   314.449   310.553   303.811   299.157   301.337   307.291   311.154   312.254   312.120   310.406   306.861   301.613   293.746   289.506   297.980   303.597   305.595   302.257   296.797   298.284   301.490   303.771   304.011   302.292   298.030   291.425   287.713   290.269   293.646   294.580   295.010   294.839   294.772   294.698   292.557   291.851   293.027   294.619   294.579   293.781   292.902   291.853   290.499   288.974   287.446   286.063   285.024   284.003   282.406   281.316   279.979   277.492   275.295   272.967   270.735   269.461   267.203   264.243   261.413   257.342   252.807   250.046   249.835   249.749   247.936   246.037   244.785   243.026   240.349   238.130   235.677   232.775   230.953   228.540   224.192   219.311   214.429   210.928   208.769   205.643   201.360   199.329   202.095   206.768   208.960   208.954   208.574   209.181   209.878   210.233   209.112   206.926   204.119   201.181   198.480   195.730   192.588   187.562   181.583   178.489   179.401   180.547   179.701   180.198   183.953   187.700   191.979   196.391   199.192   199.492   199.016   197.457   194.448   190.205   184.293   180.167   178.706   179.252   180.328   181.741   183.550   184.760   184.448   183.013   181.731   181.594   183.832   186.120   188.475   190.424   192.139   193.630   194.851   195.723   196.312   196.701   197.129   197.778   198.464   199.152   199.955   200.745   201.077   200.495   199.357   198.469   198.801   199.795   200.260   200.861   202.109   202.439   201.558   201.545
465.526   462.725   458.645   452.991   446.598   440.926   442.133   443.754   444.431   444.028   442.583   440.077   436.771   433.877   432.984   433.527   432.815   429.861   427.031   427.383   428.631   426.638   424.174   422.565   423.297   425.556   427.774   428.130   426.951   426.723   427.818   429.290   429.773   428.503   425.345   421.207   417.249   413.938   415.887   419.081   417.496   414.827   415.544   415.921   413.510   409.078   405.605   405.968   408.188   407.929   403.782   397.432   390.974   386.571   384.584   385.075   388.834   387.844   384.047   381.817   382.019   380.586   375.270   368.491   363.219   359.487   357.885   355.079   351.103   345.762   341.075   338.497   336.175   332.663   328.737   324.172   317.500   312.039   317.033   321.052   320.936   317.007   309.741   305.153   305.369   308.486   309.226   307.170   302.110   296.471   296.789   302.449   306.972   309.088   309.629   307.727   303.822   298.512   290.578   286.696   295.129   301.826   303.941   301.325   294.228   295.179   298.926   301.275   301.699   300.011   296.042   289.988   285.555   287.011   290.099   290.929   291.814   292.071   292.546   293.008   290.974   288.417   290.651   292.559   292.654   291.941   291.062   290.082   288.816   287.330   285.839   284.498   283.546   282.736   281.303   280.058   278.186   276.121   274.324   272.106   269.836   268.358   266.714   264.560   262.372   259.332   254.650   250.487   248.335   246.541   244.006   242.186   241.677   240.698   237.955   235.774   234.276   231.514   229.020   226.981   223.793   220.076   215.302   210.583   207.253   204.424   200.481   197.294   199.053   203.992   205.969   205.164   204.992   205.476   205.810   206.467   205.005   202.781   200.228   197.523   195.255   193.321   190.841   186.064   180.769   177.741   178.075   179.011   178.852   180.131   183.457   186.532   189.882   193.891   196.807   196.883   196.391   195.163   192.660   188.602   183.727   179.963   177.894   178.058   179.231   180.754   182.523   183.670   183.396   182.063   180.755   180.501   182.408   184.482   186.625   188.432   190.204   191.460   192.706   194.008   194.967   195.639   196.221   196.816   197.452   198.179   198.975   199.632   200.009   199.946   198.996   198.003   198.873   200.010   200.455   201.217   201.840   200.998   199.625   199.522
463.804   461.409   457.436   451.968   445.708   439.893   439.361   440.706   441.386   441.244   439.868   437.599   434.701   431.314   428.688   427.980   428.025   426.628   423.725   421.997   423.338   422.664   420.622   419.622   419.795   421.530   423.476   424.253   423.355   422.660   423.994   425.917   426.686   426.199   424.220   420.878   416.912   412.390   411.664   415.128   415.865   412.542   410.274   412.257   412.246   409.319   404.059   401.475   403.059   404.001   401.987   397.436   391.108   384.277   378.844   377.702   381.343   382.158   379.614   375.761   375.613   375.016   370.715   365.473   359.011   353.235   351.949   349.557   346.168   342.194   337.392   332.956   329.663   327.265   325.006   321.293   315.808   309.619   311.437   316.242   316.966   314.478   309.114   304.083   301.050   301.449   302.531   302.597   299.446   293.838   292.863   297.678   302.473   305.466   306.641   304.711   300.688   294.801   287.008   283.920   292.236   300.040   302.279   299.864   292.004   292.117   295.818   298.475   299.461   297.722   293.999   288.430   282.938   283.228   285.990   286.448   287.315   288.614   290.177   291.214   289.027   284.368   287.416   290.205   290.686   290.045   289.198   288.315   287.149   285.702   284.231   282.932   282.022   281.288   279.867   278.145   275.615   273.882   272.544   270.543   268.250   266.620   265.160   263.567   261.965   259.742   256.356   252.758   249.134   245.368   242.240   240.335   239.311   237.488   234.537   232.520   232.366   230.257   226.861   224.248   221.660   219.068   215.762   211.649   207.469   203.646   199.350   195.146   196.072   201.280   202.673   200.681   200.458   200.558   200.390   202.039   200.809   198.763   196.616   194.102   192.110   190.403   188.273   184.584   180.229   177.141   176.660   177.033   177.796   180.359   183.262   186.044   189.066   192.262   194.148   194.049   193.645   192.715   190.488   187.039   182.686   179.424   177.321   177.508   178.989   180.548   182.018   182.741   182.247   181.188   180.082   179.934   181.174   182.876   184.772   186.577   188.442   189.239   189.495   190.989   192.664   194.104   195.025   195.678   196.429   197.195   197.952   198.619   198.896   198.890   198.433   197.592   198.359   199.308   199.434   200.127   200.602   200.068   199.010   198.708
461.701   459.423   455.807   450.668   444.982   439.336   436.594   437.283   437.737   437.852   436.654   434.587   432.204   429.130   425.637   423.382   423.281   423.275   420.754   417.998   418.566   418.903   417.665   417.047   416.793   418.136   419.693   420.608   420.143   419.347   420.689   422.685   423.551   423.674   422.837   420.378   416.542   411.530   408.702   411.102   413.637   411.839   407.188   407.440   408.937   408.020   403.086   398.429   397.842   399.219   399.275   396.513   391.320   384.071   375.982   371.609   373.348   375.513   374.520   370.750   369.028   368.704   365.468   361.009   354.209   347.155   346.103   344.147   340.681   337.235   333.286   328.363   323.535   320.672   319.619   317.534   313.382   307.671   305.317   309.575   311.293   310.739   308.026   303.866   300.010   296.047   295.866   297.902   296.557   291.667   289.768   293.403   298.381   301.829   303.418   301.815   297.969   291.709   283.990   281.090   289.445   297.583   300.209   297.546   290.094   289.382   292.472   295.490   297.319   295.850   292.344   286.979   280.280   278.797   281.030   281.037   281.332   284.352   287.271   288.798   285.742   280.029   283.147   287.197   288.393   287.788   287.015   286.376   285.432   284.061   282.557   281.210   280.198   279.274   277.581   275.371   272.904   270.905   270.190   268.836   266.172   264.347   263.347   261.893   260.391   258.082   255.399   253.033   250.479   247.443   244.590   242.124   238.832   233.954   230.595   229.510   229.462   228.639   226.316   222.822   219.055   216.712   214.607   211.635   208.121   204.434   199.852   193.634   193.153   198.760   199.187   195.363   193.806   193.834   193.882   197.045   196.888   195.330   193.284   190.805   189.397   187.937   185.507   182.835   179.768   176.954   175.244   175.511   177.738   180.607   183.327   185.934   188.386   190.589   191.631   191.525   190.967   190.033   187.945   185.252   181.554   177.971   176.074   176.809   178.599   180.143   181.346   181.747   181.138   180.305   179.698   179.756   180.486   181.502   183.397   185.203   186.837   187.400   187.629   188.293   189.387   190.810   192.399   194.069   195.295   196.100   196.899   197.534   197.734   197.760   197.661   197.229   197.747   198.349   198.697   198.698   198.994   198.581   198.505   198.505
459.190   456.899   453.794   449.192   444.203   438.879   434.608   433.762   433.726   434.015   433.123   431.247   429.214   426.679   423.324   420.151   419.001   419.428   417.744   415.280   414.411   415.370   414.986   414.365   414.192   415.392   416.710   417.370   417.148   416.763   417.968   419.742   420.696   420.995   420.653   419.051   415.958   411.652   407.867   407.480   410.613   410.970   406.141   402.162   404.111   404.899   401.721   397.408   393.628   393.601   394.426   393.419   390.014   384.331   376.329   368.255   366.240   368.270   368.636   365.740   362.056   362.459   359.883   354.945   347.909   340.997   340.284   338.873   334.783   330.638   326.967   323.012   318.685   314.377   311.853   311.942   310.216   305.040   299.573   302.110   305.059   305.977   305.852   303.883   300.950   294.191   291.432   294.646   294.847   290.336   287.435   289.775   294.768   298.707   300.501   299.420   295.975   290.855   283.309   279.293   286.967   294.264   297.416   294.677   288.015   286.796   290.108   293.206   295.296   294.786   292.002   286.710   278.393   273.615   275.306   275.264   275.220   280.595   284.028   285.555   282.334   277.673   280.566   283.585   285.379   285.270   284.578   284.031   283.491   282.357   280.667   278.884   277.104   275.512   273.666   272.072   269.821   267.911   267.427   266.456   264.390   262.022   260.845   259.791   257.714   255.070   252.387   250.152   247.982   245.588   243.659   242.007   239.125   235.061   231.321   228.141   224.448   223.954   224.093   222.248   218.638   214.408   211.474   209.571   206.358   203.088   198.774   192.117   190.557   195.103   195.932   192.553   188.429   186.038   187.592   191.062   192.206   191.802   190.236   188.853   187.674   186.042   183.899   181.635   179.198   176.703   174.874   175.287   177.599   180.044   182.487   184.713   186.812   188.591   188.315   188.220   187.887   186.808   185.060   182.762   179.579   176.280   175.147   176.241   177.866   179.197   180.097   180.360   180.091   179.659   179.353   179.594   180.290   181.172   182.307   183.827   185.089   185.477   185.813   186.545   187.560   188.858   190.135   191.764   193.419   194.919   196.136   196.765   196.930   196.852   196.718   196.628   197.225   198.189   199.030   199.533   199.632   199.567   199.576   199.444
456.405   454.173   451.621   447.663   443.067   438.483   434.369   430.914   429.982   430.108   429.441   427.942   426.228   424.389   421.903   418.474   415.647   414.814   413.819   412.417   410.414   411.740   411.619   410.767   411.715   413.037   414.291   414.687   414.100   413.921   415.299   417.114   418.181   418.488   418.376   417.370   414.890   411.655   407.336   403.453   407.312   408.763   403.934   398.219   400.274   402.160   400.578   396.488   391.879   388.325   387.524   387.636   386.328   382.722   376.504   368.658   361.572   358.770   361.232   359.623   355.743   354.914   351.942   347.627   342.370   335.076   333.121   332.207   329.289   324.933   320.658   317.168   314.064   308.665   303.084   304.454   306.215   302.923   297.814   296.051   298.098   300.556   302.555   301.833   299.595   293.255   289.539   292.781   293.747   289.323   285.578   287.632   292.668   295.737   297.367   297.315   295.118   290.765   284.166   277.116   284.242   290.704   293.771   292.605   286.039   284.248   288.650   292.253   293.658   293.447   291.719   286.830   278.519   272.000   269.925   269.989   270.825   277.326   282.142   283.814   281.162   275.314   279.036   282.086   283.294   282.985   282.199   281.598   281.120   280.177   278.640   276.886   274.822   272.314   270.098   268.782   267.189   265.333   264.442   263.926   262.331   259.585   257.161   255.900   254.642   252.442   249.514   246.776   244.449   242.454   240.942   239.322   236.876   234.355   231.594   228.033   223.788   220.645   220.797   220.819   217.925   213.719   209.986   207.484   204.177   200.742   195.871   189.171   187.152   190.625   192.359   191.229   187.313   182.534   182.308   186.182   188.373   188.873   187.595   186.336   185.190   184.410   182.868   180.841   178.328   175.722   174.260   175.203   177.609   179.544   181.201   183.249   185.228   186.598   185.029   184.168   184.011   183.236   181.813   180.093   177.412   175.314   174.822   175.477   176.621   177.725   178.427   178.770   178.872   178.814   178.999   179.548   180.234   181.064   182.143   183.404   184.489   185.265   186.011   186.844   187.801   188.769   189.297   190.310   192.162   194.170   195.499   196.055   196.243   196.137   196.021   196.063   196.595   197.883   199.163   199.971   200.000   200.130   200.110   199.261
453.584   451.892   449.350   445.624   441.491   437.515   433.602   429.913   426.121   424.184   423.918   424.208   423.381   421.621   419.465   416.666   413.555   410.536   408.329   408.180   406.563   408.125   407.468   406.309   408.599   410.532   411.794   411.923   411.141   411.347   412.902   414.593   415.667   416.089   416.021   415.378   413.728   410.758   405.737   399.717   402.181   404.832   402.642   397.357   396.470   398.188   398.035   395.579   391.929   387.068   382.076   379.509   379.063   377.863   374.722   369.268   361.168   354.484   351.283   351.660   349.812   348.033   345.725   341.560   337.026   330.725   325.812   324.218   323.618   321.246   317.386   313.563   309.275   302.596   297.008   298.780   302.141   300.287   294.105   291.719   294.558   297.618   299.554   298.198   295.328   290.665   287.867   291.649   293.290   289.767   284.270   283.793   288.948   292.542   293.935   294.614   294.165   290.951   285.084   277.116   281.195   286.869   290.318   290.432   283.182   281.844   287.036   290.690   291.808   292.051   291.191   287.030   279.473   272.309   266.968   264.441   266.863   273.527   279.155   281.444   279.960   273.735   275.612   279.289   280.783   280.714   280.086   279.478   278.986   277.931   276.405   274.890   273.018   270.694   267.994   265.868   264.532   262.684   261.493   261.070   259.817   256.741   253.268   251.777   251.029   249.572   247.075   244.171   241.384   239.057   237.404   235.499   232.727   230.819   229.070   226.828   223.415   219.655   216.905   217.177   215.642   212.443   208.306   205.094   202.413   199.499   195.029   189.131   185.068   184.596   185.876   186.918   185.629   181.863   179.103   182.481   184.890   186.280   185.070   183.835   182.540   182.366   181.494   179.709   177.171   174.463   173.560   175.204   177.565   179.032   180.161   181.885   183.694   184.266   181.973   180.585   180.538   180.412   179.385   177.697   175.745   174.769   174.702   175.087   175.949   176.933   177.624   178.057   178.335   178.608   179.187   180.016   181.172   182.125   183.236   184.226   185.123   186.245   187.200   188.035   188.952   189.688   189.797   190.345   192.066   193.899   194.888   195.343   195.582   195.544   195.505   195.573   195.932   197.207   198.558   199.292   199.706   199.999   199.364   197.746
450.693   448.816   446.169   442.746   439.144   434.830   431.147   428.475   424.964   421.269   419.005   419.533   419.570   417.975   416.286   414.328   410.211   404.481   401.886   402.424   402.806   403.433   402.043   401.880   404.895   407.551   409.055   408.717   407.668   408.309   410.371   412.170   413.216   413.691   413.716   413.407   412.363   409.389   403.613   397.660   397.088   400.909   400.609   396.022   392.532   394.465   395.157   393.904   391.256   386.581   380.420   374.846   372.509   372.243   370.867   367.035   360.056   352.682   346.501   343.490   341.974   341.652   338.901   334.883   331.130   327.432   322.838   318.474   317.312   316.878   314.288   310.159   305.222   298.262   292.322   293.540   297.177   295.413   289.276   290.150   292.937   295.682   296.601   294.707   291.970   287.017   286.068   290.636   293.220   291.229   285.519   281.660   284.128   288.426   290.350   291.802   292.400   290.687   285.871   278.508   277.116   282.637   286.205   286.569   280.283   280.136   284.917   288.468   289.745   290.173   289.865   286.715   280.556   274.086   267.354   262.032   262.783   269.057   275.039   278.141   278.147   272.589   272.056   275.593   277.770   278.328   278.021   277.534   276.908   275.563   273.909   272.532   271.083   269.283   266.395   263.622   261.831   259.833   258.311   257.883   257.019   254.065   250.162   247.976   247.188   246.347   244.538   241.758   238.622   235.833   233.664   231.232   227.989   225.825   224.791   224.085   221.897   218.794   213.731   212.573   211.950   209.832   205.787   202.411   200.425   198.289   194.876   190.432   185.027   180.775   179.825   180.603   182.026   181.258   177.279   178.860   182.080   183.841   182.809   181.609   180.004   179.998   179.680   178.050   175.662   173.082   172.979   175.017   176.258   176.934   178.561   180.438   182.095   181.725   179.515   178.035   178.018   178.538   178.281   176.267   174.935   174.441   174.695   175.386   176.394   177.457   178.276   178.695   178.908   179.381   180.195   181.285   182.871   183.978   184.827   185.533   186.232   187.350   188.117   188.857   189.763   190.527   190.901   191.517   192.778   193.776   194.208   194.604   194.895   194.972   195.019   195.115   195.309   196.143   197.033   197.448   198.650   199.460   197.507   195.596
447.017   445.185   442.656   439.685   436.379   432.302   429.181   426.920   424.188   420.488   416.347   414.354   413.900   413.197   412.243   410.167   405.202   399.445   397.280   398.198   399.613   399.923   398.589   399.106   401.809   404.540   406.143   405.361   404.025   404.264   406.647   409.033   410.433   411.215   411.497   411.318   410.480   407.720   402.154   396.504   392.426   395.671   397.153   394.819   390.082   390.850   392.043   391.454   389.288   385.316   379.391   371.977   367.246   366.681   366.101   362.567   356.927   351.553   345.418   339.447   335.989   334.436   331.074   327.936   324.771   323.677   320.908   315.395   311.930   311.808   310.624   306.703   301.552   294.795   288.332   288.328   292.374   290.504   285.292   288.930   291.994   294.181   294.057   292.216   289.196   283.002   284.451   289.769   293.010   292.362   288.107   282.048   279.925   283.222   285.884   287.862   288.858   288.615   285.839   280.203   274.191   277.863   281.575   282.003   277.597   279.026   282.947   285.949   287.218   287.535   287.480   285.656   281.503   276.474   270.408   263.899   260.178   263.863   270.046   274.190   275.482   271.784   269.122   272.027   274.777   275.883   275.852   275.594   274.887   273.346   271.505   270.002   268.840   267.321   264.615   262.060   259.603   256.934   254.838   254.486   254.091   251.774   248.201   244.915   243.493   242.848   241.550   238.911   235.627   232.598   229.809   226.846   223.620   220.959   220.196   220.081   218.831   216.122   211.972   208.654   207.497   205.878   202.429   199.513   197.445   195.599   193.055   190.213   186.652   182.529   178.634   175.894   177.147   177.845   175.255   174.078   179.974   181.348   180.969   179.633   177.665   177.766   177.777   176.057   173.756   171.600   172.668   174.288   172.480   171.551   174.947   178.378   180.150   179.459   178.018   176.425   176.334   176.993   178.203   176.547   174.940   174.295   175.009   176.282   177.737   179.099   179.996   180.311   180.354   180.707   181.874   183.390   183.522   184.254   184.732   185.212   186.065   187.191   187.818   188.469   189.360   190.237   191.079   191.926   192.526   192.926   193.352   193.825   194.165   194.288   194.451   194.547   194.649   194.778   194.832   194.862   195.981   198.408   196.025   194.464
442.842   441.220   438.990   436.401   433.434   430.212   427.708   425.464   423.252   420.349   415.558   410.858   408.617   407.629   406.364   403.564   398.783   394.947   394.062   395.364   396.955   397.717   396.756   397.478   399.543   401.890   403.240   402.256   400.183   399.448   401.926   404.932   406.733   407.867   408.444   408.374   407.737   405.575   401.216   395.762   389.511   389.347   392.990   393.664   389.413   386.890   388.032   387.934   386.037   382.607   377.082   369.438   363.060   361.351   361.129   357.220   352.042   349.202   345.170   339.834   333.896   328.007   323.870   320.751   317.848   318.252   316.858   313.720   308.630   306.770   306.238   303.158   297.885   291.306   284.659   283.020   287.822   286.956   282.903   285.600   290.606   292.680   292.108   290.461   285.413   279.587   283.497   289.201   292.246   292.082   289.984   284.409   278.202   277.516   279.648   281.270   282.473   283.434   284.009   281.161   275.013   272.828   276.923   278.564   274.962   277.978   282.039   283.629   283.964   284.097   284.122   283.895   282.185   278.313   274.069   268.874   261.871   258.355   264.571   270.195   272.051   271.439   266.395   269.907   272.748   273.612   273.561   273.518   273.195   271.920   269.989   268.151   266.733   265.205   262.660   260.850   259.036   254.506   251.429   251.154   251.056   249.249   246.602   243.037   240.268   239.376   238.410   235.588   231.686   227.965   224.799   222.022   219.227   216.828   215.599   215.686   214.958   212.652   209.733   206.004   203.050   201.496   199.171   196.351   193.978   192.170   190.488   188.915   187.059   184.419   181.552   178.552   174.353   170.918   171.097   168.893   174.787   178.239   178.414   177.184   175.494   175.657   175.843   174.237   171.963   170.505   172.068   173.257   171.245   169.958   172.168   175.452   176.868   177.600   176.278   175.126   175.036   175.542   176.891   176.546   175.050   174.013   174.550   176.057   177.898   179.471   180.404   180.927   181.432   181.957   182.298   181.974   180.708   180.870   182.183   183.281   184.598   185.966   186.752   187.491   188.400   189.336   190.215   191.071   191.654   192.152   192.766   193.236   193.461   193.593   193.651   193.748   193.845   193.934   193.948   194.311   195.570   197.918   196.014   194.719
438.393   436.904   435.018   432.741   430.534   428.342   426.189   424.099   422.000   419.330   415.249   410.317   405.905   402.231   398.803   395.387   392.060   390.073   390.902   392.735   394.618   395.971   394.814   395.631   397.695   399.774   400.426   399.441   395.804   394.541   397.195   400.156   401.698   402.709   403.377   403.745   403.927   402.592   399.675   395.193   389.923   383.589   389.575   391.663   389.396   382.177   381.951   382.801   382.008   378.715   373.549   366.642   359.178   355.787   355.878   352.795   347.263   343.764   342.394   338.848   334.223   328.608   321.624   312.345   309.732   310.821   310.035   309.951   307.253   303.136   301.428   299.284   294.402   288.239   281.527   277.674   280.023   281.626   278.964   279.940   287.946   290.482   289.914   286.358   278.822   278.474   283.670   288.813   291.337   291.620   290.674   286.565   279.743   274.358   271.483   270.663   271.682   275.099   278.673   280.247   276.023   270.840   271.304   273.897   271.956   275.987   280.319   281.167   280.856   280.808   281.022   281.120   280.234   277.904   274.556   270.854   265.534   259.157   258.188   264.042   268.660   270.083   265.448   267.163   270.410   271.471   271.731   271.800   271.537   270.606   268.998   267.130   265.300   263.686   262.213   260.845   259.059   254.745   250.792   247.849   246.633   245.145   243.934   241.640   238.591   236.691   235.225   233.141   229.650   225.212   220.949   217.561   215.188   212.769   211.135   211.626   211.075   209.010   206.392   203.057   199.022   196.474   195.084   192.956   191.051   189.691   188.464   187.098   185.606   184.116   182.592   180.266   175.798   169.635   165.075   164.182   171.779   174.744   175.571   174.578   173.242   173.752   174.139   172.863   170.856   170.017   171.698   172.545   170.668   169.342   170.484   172.650   173.942   175.168   175.538   174.754   174.536   174.948   176.141   176.354   175.197   173.958   174.216   175.692   177.461   178.834   179.626   180.110   180.503   180.774   180.863   180.379   179.242   179.517   180.901   182.080   183.388   184.641   185.659   186.504   187.428   188.336   189.244   190.229   191.013   191.651   192.210   192.547   192.758   193.050   193.351   193.402   193.466   193.466   193.466   194.463   195.783   197.525   196.494   195.405
433.163   431.561   429.897   428.634   427.889   426.186   424.213   422.144   419.921   416.630   412.850   408.636   403.969   399.660   395.406   391.367   388.804   387.907   388.797   390.678   392.756   394.092   392.852   393.285   395.272   397.201   396.683   393.940   389.747   389.824   393.605   396.464   397.090   397.517   398.486   399.430   400.069   399.323   397.108   393.882   389.291   380.941   381.313   386.779   387.083   381.358   376.235   376.523   376.837   374.119   369.684   364.248   357.538   351.492   349.347   348.994   344.849   339.333   336.126   334.375   331.646   327.491   322.152   312.250   305.748   302.244   301.594   302.286   303.439   300.492   296.568   293.886   290.505   285.924   280.062   274.383   274.244   276.589   274.053   272.234   279.659   284.465   284.235   277.809   274.342   278.406   283.316   288.001   290.294   290.637   290.118   287.326   282.486   277.984   274.128   270.900   269.070   268.406   271.255   274.977   276.789   272.199   266.632   268.934   268.417   272.427   277.598   278.967   278.584   278.375   278.520   278.829   278.575   277.031   274.248   271.293   267.268   260.719   256.258   257.824   263.525   267.371   264.580   262.707   266.208   268.747   269.633   269.846   269.752   269.199   267.916   266.102   264.198   262.489   261.183   259.925   258.043   254.600   251.123   247.286   243.988   240.936   239.367   237.709   235.071   233.641   232.492   230.642   227.510   223.278   218.853   214.759   211.375   208.863   207.069   206.921   206.716   205.304   203.024   200.040   195.951   191.856   190.319   189.613   188.731   187.677   186.593   185.308   183.840   182.524   181.438   179.690   175.700   169.354   162.998   161.341   168.482   171.494   172.707   172.042   171.040   171.772   172.282   171.329   169.423   169.406   171.366   171.962   170.303   168.948   169.478   171.168   172.470   173.853   175.045   174.494   174.260   174.685   175.576   176.006   175.177   173.839   173.948   175.206   176.658   177.655   178.084   178.279   178.432   178.566   178.731   178.513   178.136   178.955   180.266   181.365   182.518   183.541   184.303   185.351   186.363   187.253   188.203   189.439   190.500   191.165   191.624   192.034   192.459   192.976   193.536   193.681   193.734   193.466   193.466   194.785   196.045   197.000   196.773   195.935
428.851   427.488   426.256   425.347   425.198   423.888   422.087   419.792   416.988   413.491   410.034   406.259   401.795   397.384   393.173   389.530   387.019   385.785   386.873   388.896   391.078   392.220   390.953   390.866   392.777   394.557   393.271   389.233   384.546   386.239   390.528   392.955   392.966   392.526   393.201   394.691   395.703   395.195   393.655   391.154   386.409   378.557   373.915   379.754   382.361   379.066   373.027   370.327   370.479   369.084   365.864   361.586   355.725   349.401   345.068   343.211   341.376   336.754   331.904   328.765   327.311   324.385   320.107   310.930   304.687   298.703   295.080   294.720   297.405   296.893   293.008   288.679   285.573   282.933   278.346   272.093   269.012   272.687   271.352   267.314   273.327   277.283   275.440   270.868   273.133   278.949   283.144   286.706   288.559   289.024   288.748   287.385   284.659   281.340   278.284   274.915   271.116   267.717   266.698   270.506   274.985   272.987   266.083   264.335   265.954   270.661   275.493   276.758   276.309   276.026   276.222   276.665   276.815   275.984   273.731   271.212   267.757   261.400   255.650   253.956   259.086   263.819   264.274   260.476   262.344   265.438   266.885   267.286   267.441   267.406   266.678   265.117   263.265   261.467   259.778   258.003   256.048   253.558   250.956   247.460   243.423   239.273   236.195   233.128   230.870   229.977   228.927   227.019   224.420   220.974   217.059   213.022   208.878   205.865   203.523   202.028   202.033   201.317   199.639   197.003   193.521   188.588   185.605   185.794   186.312   185.791   184.764   183.561   182.086   180.294   178.537   176.694   173.392   168.456   162.681   159.833   165.179   168.284   169.786   169.641   169.027   169.890   170.191   169.343   167.592   168.660   171.014   171.364   169.745   168.422   169.142   170.896   172.231   173.597   174.750   174.337   174.017   174.356   174.956   175.422   174.906   173.687   173.625   174.525   175.567   176.181   176.220   176.108   176.148   176.326   176.628   176.746   177.250   178.566   179.780   180.756   181.733   182.505   182.728   183.864   185.085   186.093   187.153   188.660   190.032   190.762   191.256   191.919   192.629   193.321   193.991   194.374   194.521   194.069   193.466   194.684   195.901   196.270   196.477   196.022
425.193   424.083   422.665   422.222   422.285   421.459   419.391   416.787   413.796   410.499   407.350   404.099   400.015   395.687   391.596   388.027   385.302   383.632   384.114   386.297   388.708   390.371   388.802   388.277   390.213   391.896   390.210   385.326   380.660   383.100   387.346   388.658   387.861   387.569   388.702   390.120   390.680   390.255   388.810   386.488   381.928   375.105   368.598   372.594   376.183   375.130   369.968   364.274   363.015   362.516   360.907   358.048   353.410   348.036   343.127   338.567   335.047   332.394   328.638   324.300   321.589   319.968   316.419   309.071   303.747   297.402   291.513   288.251   291.318   293.240   290.518   284.942   280.701   278.723   275.666   270.110   265.136   268.473   269.073   264.530   266.810   268.793   266.899   268.221   273.750   279.433   282.890   285.123   286.442   287.021   286.864   286.381   285.231   283.181   281.263   278.735   274.561   270.192   265.693   267.325   272.545   272.884   267.162   260.943   264.249   269.862   273.817   274.557   273.972   273.681   274.003   274.517   274.873   274.694   273.106   270.699   267.132   261.170   254.831   251.911   255.954   260.488   263.951   260.709   259.417   261.877   263.732   264.352   264.806   265.329   265.291   264.208   262.504   260.667   258.492   255.968   253.803   251.727   249.876   247.037   243.769   239.891   235.424   230.161   227.124   225.370   223.750   221.751   219.576   217.127   214.345   211.207   207.404   203.818   200.511   197.446   197.308   197.132   196.119   193.922   191.115   186.646   181.697   181.786   183.585   183.860   182.976   181.848   180.366   177.940   174.950   172.333   169.675   166.327   161.621   158.792   162.466   165.030   166.746   167.272   167.229   168.243   167.983   166.947   165.770   167.935   170.537   170.605   168.683   167.651   169.479   171.243   172.626   173.936   174.837   174.517   173.869   173.784   174.140   174.530   174.350   173.568   173.121   173.601   174.254   174.599   174.526   174.396   174.528   174.726   175.023   175.697   176.923   178.174   179.099   179.859   180.600   181.076   181.205   181.936   183.486   184.880   186.217   187.862   189.605   190.805   191.569   192.293   192.962   193.656   194.363   194.916   195.346   195.350   193.792   193.487   194.982   195.447   195.666   195.778
421.621   420.625   418.811   417.904   417.980   417.547   415.677   413.172   410.491   407.711   404.891   401.949   398.268   394.220   390.279   386.625   383.552   381.307   380.826   382.950   385.760   388.008   386.462   385.298   387.160   388.710   386.796   381.855   377.357   380.195   383.987   383.809   382.254   382.837   384.745   385.477   384.930   384.038   382.590   380.367   376.267   370.681   364.488   365.615   369.373   370.060   366.288   359.101   355.747   355.318   355.057   353.582   350.255   345.974   341.781   335.895   328.897   326.619   324.675   320.780   315.722   314.254   311.779   306.613   301.593   296.265   289.994   283.275   285.661   289.126   288.091   282.886   277.260   273.983   271.591   267.593   262.476   263.744   266.161   263.049   260.471   260.959   262.283   269.619   274.723   279.305   282.154   283.449   284.300   284.876   284.760   284.353   284.008   283.288   281.997   279.989   276.613   272.218   266.896   264.845   271.274   272.194   266.996   259.180   262.626   268.534   272.015   272.446   271.733   271.436   271.825   272.384   272.813   273.045   272.242   269.669   265.680   260.654   253.292   250.008   253.804   258.337   262.677   261.705   257.639   258.610   260.651   261.628   262.424   263.294   263.778   263.325   261.948   260.168   257.830   255.117   252.382   249.759   248.336   245.505   242.903   240.058   235.779   230.734   224.682   219.730   217.101   215.120   212.476   210.879   209.996   207.759   205.032   201.859   197.902   193.534   192.895   193.236   192.300   190.708   187.869   184.600   179.264   179.311   181.320   181.970   181.360   180.260   178.433   175.691   172.573   169.469   166.441   163.485   160.132   157.572   160.414   162.438   163.614   164.472   165.360   166.541   166.156   164.909   165.054   167.268   169.540   169.477   167.074   166.883   170.192   171.706   173.677   175.585   175.395   175.008   174.426   173.649   173.165   173.545   173.375   172.837   172.471   172.795   173.217   173.463   173.711   173.874   173.960   174.241   174.794   175.624   176.528   177.425   178.208   178.959   179.393   179.710   179.826   180.159   181.749   183.936   186.003   187.917   189.600   190.809   191.727   192.637   193.508   194.283   194.994   195.777   196.295   195.678   194.105   191.722   192.896   193.913   194.950   195.274
417.585   416.607   414.589   412.430   412.298   412.050   411.103   409.236   407.171   404.987   402.527   399.698   396.350   392.658   388.863   385.155   381.611   378.511   377.238   379.062   382.447   384.946   384.039   381.944   383.370   384.716   382.846   378.490   373.682   376.973   380.163   378.757   376.787   378.232   380.558   380.374   378.610   376.496   375.416   373.730   370.108   366.030   360.331   358.673   362.668   364.661   362.118   355.587   350.359   349.033   349.137   348.553   346.152   342.246   338.600   334.416   327.957   322.468   318.804   316.288   311.223   307.080   306.391   302.785   298.337   294.215   288.104   279.694   279.366   283.082   284.255   281.607   276.599   270.599   266.105   263.598   259.718   260.026   263.050   262.530   258.982   258.704   264.877   271.130   275.225   278.250   280.522   281.802   282.324   282.732   282.690   282.361   282.092   281.566   280.582   278.765   275.762   271.902   266.453   262.186   270.068   270.748   265.664   258.131   260.961   266.564   269.881   270.459   269.769   269.320   269.714   270.391   270.866   271.176   270.709   268.674   265.047   260.482   252.485   247.190   251.756   256.395   260.323   261.296   260.036   256.417   257.408   259.860   261.120   261.635   261.866   261.772   260.971   259.186   256.576   254.327   251.756   249.271   246.952   244.275   241.002   237.605   233.915   229.638   223.945   219.176   215.513   212.476   209.380   206.851   204.182   201.205   199.814   197.586   193.747   189.344   188.493   189.428   188.723   187.512   185.340   182.090   177.109   175.640   177.976   179.166   178.941   178.121   176.431   174.002   171.383   168.605   165.368   162.241   159.089   156.246   158.072   159.922   161.431   162.530   163.754   164.992   164.536   163.148   163.205   165.173   166.817   166.252   165.149   167.128   171.313   173.593   175.255   176.005   175.889   175.504   175.062   174.138   173.161   172.700   172.458   172.178   172.543   173.348   174.153   174.535   174.615   174.575   174.492   174.490   174.641   175.186   175.963   176.675   177.306   177.928   178.246   178.785   179.445   180.386   182.470   185.044   187.470   189.149   190.292   191.270   192.187   193.072   193.945   194.854   195.900   196.857   197.068   195.869   193.647   190.566   190.845   192.216   193.634   194.379
412.675   411.868   410.089   407.624   406.874   406.693   406.604   405.523   403.909   401.992   399.871   397.629   394.553   390.902   387.070   383.142   378.844   374.617   372.915   374.616   378.769   382.000   381.562   378.858   379.210   380.499   380.060   375.314   369.013   371.430   374.404   372.984   370.673   372.301   375.121   374.808   372.573   369.716   368.323   367.666   365.495   362.263   357.438   352.933   356.467   359.392   358.436   353.095   347.296   342.501   342.546   343.920   342.607   338.706   334.709   331.739   327.769   323.114   317.595   309.360   306.353   302.254   297.794   297.017   294.718   291.008   285.418   277.091   274.996   279.013   281.563   279.775   275.752   270.598   264.480   259.546   257.891   258.885   261.253   261.170   257.978   258.854   265.439   271.074   274.472   276.672   278.686   279.995   280.585   280.791   280.662   280.374   280.131   279.817   279.065   277.243   274.150   270.319   263.670   259.501   265.634   267.472   263.883   257.167   260.045   264.825   267.694   268.400   267.861   267.072   267.087   267.763   268.245   268.450   268.308   267.008   263.714   259.877   252.363   245.662   250.312   255.092   258.794   260.083   258.990   256.149   255.041   256.540   258.621   259.589   259.816   259.731   258.654   256.557   254.285   252.166   249.360   246.650   244.671   243.554   241.000   237.034   233.151   228.503   222.926   218.843   215.344   212.036   208.789   205.591   202.158   198.068   194.773   193.092   189.720   185.372   183.424   185.210   185.331   184.565   182.845   179.265   173.862   171.824   173.762   174.829   174.368   174.287   174.040   172.563   170.203   167.199   163.822   160.835   158.189   155.663   156.427   158.338   159.680   160.832   162.144   163.488   162.902   161.547   161.273   162.449   163.308   163.505   164.713   167.959   172.134   174.954   175.762   176.173   176.233   175.986   175.495   174.596   173.466   172.581   171.953   171.925   172.661   173.640   174.542   175.066   175.306   175.363   175.247   175.068   174.901   175.009   175.493   176.198   176.857   177.469   177.985   178.736   179.626   181.294   183.782   186.504   188.890   190.229   191.029   191.864   192.742   193.593   194.494   195.641   197.060   197.892   197.122   195.386   192.346   189.758   189.559   190.948   192.537   193.416
408.403   407.687   405.744   403.704   402.493   402.690   402.555   401.596   400.390   398.875   397.193   395.262   392.644   389.182   385.085   380.378   374.904   370.155   368.710   370.043   373.780   378.516   377.892   374.077   373.867   375.755   376.308   372.584   365.506   365.648   368.129   367.750   365.677   366.769   369.345   369.085   367.140   364.603   362.650   362.226   360.932   358.341   354.193   348.207   350.617   353.677   355.119   351.933   346.684   341.026   338.411   338.338   337.810   334.763   330.438   327.458   325.093   321.450   316.374   308.665   302.928   296.963   291.669   288.962   288.907   286.660   282.166   274.502   270.148   273.239   276.408   276.011   273.438   269.368   263.994   258.865   256.813   257.245   259.353   258.751   256.061   258.570   265.392   270.609   273.440   275.418   277.022   278.081   278.592   278.689   278.480   278.174   277.990   277.912   277.483   275.972   273.418   270.386   264.708   258.546   261.825   263.852   261.537   254.960   259.182   263.352   265.727   266.452   265.981   265.109   264.643   264.893   265.322   265.454   265.570   265.128   262.734   259.325   252.023   244.318   247.561   252.983   256.217   258.234   257.550   255.342   253.121   253.630   255.592   256.946   257.313   256.718   255.202   252.926   250.195   247.591   244.554   242.870   242.423   242.096   240.091   236.578   232.918   228.542   223.738   219.876   216.506   213.260   209.999   206.365   202.388   197.369   191.710   188.288   184.998   181.193   177.895   180.156   181.821   181.479   179.834   176.397   171.079   168.226   169.264   170.441   170.221   170.642   171.251   170.475   168.491   165.565   162.233   159.436   157.147   155.070   155.236   156.927   158.144   159.324   160.542   161.661   161.236   160.016   159.376   159.721   160.347   162.458   166.086   169.679   173.203   175.866   176.103   176.290   176.524   176.357   175.749   174.928   173.863   172.873   171.865   171.819   172.555   173.473   174.309   174.897   175.358   175.709   175.867   175.812   175.544   175.398   175.595   176.227   176.978   177.670   178.398   179.192   180.170   182.282   184.808   187.393   189.518   190.692   191.471   192.308   193.213   194.098   195.170   196.771   198.414   198.830   196.931   194.315   190.751   189.074   189.003   190.275   191.859   192.525
404.502   403.342   401.371   399.521   398.983   399.214   399.004   398.168   397.125   395.944   394.491   392.770   390.334   386.853   382.488   377.137   371.149   366.367   364.634   366.215   370.166   374.739   374.602   370.244   368.942   371.235   372.290   368.736   362.327   360.468   362.708   363.404   361.263   361.577   363.766   363.471   361.591   359.141   356.878   356.184   355.118   353.411   350.265   343.378   344.935   348.971   351.497   349.844   345.888   340.870   335.015   332.604   332.587   330.458   326.114   322.683   321.019   318.482   314.107   308.210   301.645   294.514   287.916   282.641   282.152   281.210   278.195   272.015   266.413   266.106   268.680   270.041   269.252   266.748   262.731   258.225   255.490   255.706   257.202   255.952   254.651   258.386   264.514   269.867   272.307   274.067   275.251   276.062   276.470   276.465   276.206   275.920   275.809   275.892   275.795   274.960   273.310   271.032   267.105   259.462   257.440   259.278   257.493   252.035   257.481   261.746   263.817   264.506   264.074   263.286   262.515   262.130   262.313   262.633   263.033   263.164   261.704   258.383   251.617   242.896   243.530   250.698   253.698   256.294   256.444   254.413   251.877   251.272   252.510   254.133   254.687   253.694   251.858   249.320   245.817   242.340   238.524   237.923   239.344   239.438   237.721   235.091   231.930   228.302   224.490   220.647   217.188   214.059   210.938   207.189   202.834   197.531   190.818   184.969   181.043   177.173   172.919   174.053   176.848   177.296   176.030   173.374   168.910   164.933   165.031   166.612   167.272   167.823   168.088   167.308   165.849   163.707   160.868   158.232   155.966   154.077   154.091   155.329   156.642   157.755   158.776   159.371   159.262   158.266   157.664   157.914   159.381   163.711   168.842   172.147   174.784   176.669   176.914   176.589   176.884   176.625   175.942   175.153   174.138   173.071   171.931   171.615   172.218   173.068   173.862   174.415   174.859   175.419   176.078   176.455   176.364   176.366   176.516   176.860   177.565   178.306   178.947   179.569   180.772   182.836   184.940   187.134   189.107   190.482   191.441   192.357   193.422   194.450   195.901   198.186   199.781   199.664   197.258   193.112   189.669   188.320   188.644   190.009   191.327   191.697
400.760   399.094   397.213   395.871   395.954   396.069   395.777   394.993   393.991   392.958   391.552   389.690   387.148   383.832   379.173   373.053   366.650   362.042   360.877   362.711   367.004   371.500   371.520   367.403   364.492   365.789   367.292   365.100   359.214   355.418   357.345   358.890   356.911   356.396   358.048   357.957   355.967   353.309   351.074   350.127   349.155   348.306   345.224   338.236   340.308   345.142   347.457   346.378   343.639   339.461   332.264   327.685   326.908   325.934   322.563   318.171   315.834   314.669   311.216   306.737   301.178   294.375   286.729   279.459   276.350   275.282   273.630   269.925   264.705   260.997   261.326   263.001   263.581   262.682   260.054   256.420   253.674   254.263   254.758   253.232   254.075   258.248   263.228   268.510   270.970   272.414   273.299   273.979   274.294   274.182   273.904   273.696   273.684   273.848   273.971   273.829   273.087   271.341   268.622   261.530   254.294   254.510   252.151   249.270   254.741   259.682   261.840   262.521   262.167   261.403   260.329   259.134   258.924   259.880   260.792   261.143   260.199   256.833   251.242   241.409   239.378   248.490   252.110   254.569   255.607   254.050   251.582   249.608   249.834   251.489   252.280   251.504   249.597   246.643   242.874   238.526   233.129   231.715   234.352   235.625   234.308   231.908   228.947   225.738   222.376   218.900   215.360   212.218   209.347   205.818   201.526   196.772   191.129   185.228   180.191   174.465   170.023   167.430   168.998   170.941   171.373   169.802   166.385   161.780   161.500   163.197   164.655   165.284   164.643   163.205   162.068   161.201   159.618   157.282   154.919   152.814   152.557   153.786   155.020   155.616   156.446   156.821   156.359   155.777   156.448   158.338   161.858   167.140   171.740   174.367   176.383   177.609   177.658   177.555   177.430   177.022   176.260   175.317   173.922   172.683   171.455   171.440   172.081   172.908   173.353   173.777   174.292   174.816   175.430   176.207   176.974   177.300   177.572   177.858   178.209   178.870   179.357   179.672   180.281   181.597   182.931   185.186   187.631   189.593   190.794   191.796   193.053   194.617   196.788   199.174   200.303   199.683   196.668   192.090   188.998   187.349   188.135   189.526   190.569   190.821
397.109   395.137   393.251   392.794   393.087   393.025   392.650   391.815   390.709   389.582   387.982   385.783   382.989   379.787   374.965   368.370   361.747   357.486   357.310   359.275   363.796   368.647   368.530   365.038   360.685   359.607   361.455   362.023   356.127   350.606   351.950   354.039   352.650   351.212   352.007   352.427   350.547   347.803   345.650   344.560   344.093   343.489   339.231   333.023   336.929   341.582   343.035   341.757   339.518   335.683   330.166   324.427   321.153   321.127   319.815   314.271   309.987   310.051   308.121   304.428   299.795   294.513   287.542   279.160   273.218   270.070   268.969   268.245   265.068   261.320   258.143   257.099   257.523   257.429   256.157   253.572   251.630   252.609   252.138   250.916   253.851   257.719   262.207   266.007   269.090   270.400   271.228   271.871   272.068   271.895   271.619   271.498   271.641   271.895   271.995   271.909   271.731   270.893   268.092   263.315   257.749   252.062   247.898   247.647   251.723   257.000   259.809   260.602   260.411   259.288   257.002   254.450   254.015   256.133   258.141   258.988   258.206   255.183   250.516   240.178   237.916   244.728   250.340   252.582   254.186   253.932   252.386   250.110   248.040   248.580   249.874   249.260   247.513   244.912   241.258   236.284   230.392   224.920   227.803   231.385   230.541   227.303   224.162   221.320   218.716   215.425   212.062   208.857   205.635   202.177   198.355   194.192   189.931   185.872   181.654   177.042   171.456   166.370   162.343   163.363   165.571   165.229   162.637   157.891   158.651   161.108   162.615   162.781   161.758   159.751   157.926   157.405   156.842   155.327   153.035   151.300   151.233   152.080   153.083   153.372   153.966   154.174   153.863   155.117   157.328   160.760   165.964   170.772   173.966   176.122   177.692   178.345   176.891   176.333   176.393   176.824   176.337   175.093   173.675   172.293   170.979   171.207   171.922   172.441   172.759   173.206   173.764   174.322   174.872   175.618   176.657   177.376   177.660   177.945   178.239   178.621   178.957   179.243   179.665   180.158   180.814   183.008   185.575   187.899   189.329   190.074   190.888   193.231   196.716   199.049   199.957   198.370   194.164   190.098   187.436   186.794   188.040   189.021   189.449   189.699
393.572   391.518   389.259   389.732   390.060   389.788   389.332   388.367   386.932   385.481   383.389   381.112   378.155   374.374   369.776   363.878   357.942   354.336   353.517   355.885   360.684   365.032   365.681   362.278   357.888   354.621   356.045   358.201   353.308   347.083   347.748   350.195   349.328   346.552   345.879   346.654   345.844   344.083   341.221   339.289   340.071   338.098   333.648   328.594   333.009   337.416   338.282   336.819   334.442   331.637   327.954   323.396   317.516   315.128   314.974   310.378   305.076   303.473   303.352   301.157   297.008   292.427   286.457   279.071   272.623   268.462   265.972   265.093   264.952   263.067   260.164   256.874   254.024   252.625   251.711   250.382   250.130   250.898   250.221   249.670   252.951   256.510   260.074   263.314   265.787   267.317   268.469   269.363   269.633   269.363   269.108   269.220   269.531   269.816   269.993   269.960   269.799   269.245   267.648   263.998   260.179   255.108   249.560   244.845   248.677   253.046   256.087   258.072   258.285   256.604   254.026   250.966   249.914   252.410   254.892   256.332   256.356   253.607   249.860   239.784   236.699   241.256   247.404   250.601   252.069   252.278   252.102   250.972   248.442   245.673   244.638   244.621   244.046   242.834   239.567   234.695   228.811   220.594   219.918   223.665   223.209   220.684   218.234   216.065   214.060   211.266   207.862   204.602   201.585   198.271   194.444   190.843   188.037   185.270   181.890   177.889   172.469   166.860   161.620   158.653   158.876   159.548   158.677   154.655   154.631   157.294   159.594   159.821   157.865   155.180   153.733   153.855   153.897   153.036   151.285   150.214   150.150   150.431   150.901   151.048   151.476   151.782   153.449   156.388   159.426   163.856   169.224   173.471   176.298   178.243   179.181   178.607   176.249   175.204   175.528   176.335   176.389   174.445   173.070   171.654   170.607   170.922   171.520   171.819   171.997   172.443   173.039   173.610   174.233   175.093   176.150   176.888   177.227   177.558   177.844   178.130   178.416   178.753   179.180   179.443   179.921   181.628   183.757   185.961   187.316   188.221   189.289   192.137   196.042   197.987   198.379   196.052   191.682   187.703   185.974   186.460   187.599   187.791   187.896   188.078
390.261   387.576   384.706   385.129   385.838   385.566   385.036   384.130   382.576   380.790   378.818   376.797   374.019   370.127   365.496   360.211   354.831   350.814   349.396   351.875   357.586   361.818   362.731   360.114   353.800   349.653   349.756   351.582   350.332   345.451   342.117   343.007   344.483   343.001   340.566   340.513   341.459   340.112   336.646   332.998   332.315   331.308   326.790   322.008   329.083   332.453   332.155   330.775   328.867   326.682   324.159   320.546   314.322   309.893   309.023   306.775   302.483   298.993   297.702   296.456   292.981   288.481   282.893   277.127   271.762   267.808   264.575   262.188   261.784   261.859   260.791   258.204   255.029   252.400   250.596   249.185   248.084   247.921   247.811   248.220   251.852   255.229   258.129   260.392   262.441   263.912   265.258   266.154   266.526   266.350   266.272   266.551   267.211   267.884   267.947   267.770   267.674   267.239   266.135   264.114   261.216   257.068   251.472   244.845   245.012   249.904   253.219   255.494   255.934   254.401   252.160   249.017   246.964   248.649   251.528   253.520   254.321   252.740   249.419   239.353   235.254   238.971   244.567   247.953   249.772   250.465   250.872   250.642   248.832   245.435   242.713   241.161   240.222   239.956   237.383   232.515   226.141   216.931   212.212   214.748   214.765   212.366   209.988   209.132   207.741   205.325   201.567   197.490   194.807   192.862   190.349   187.608   185.313   183.379   180.994   177.248   172.133   167.022   161.996   156.973   153.753   153.437   154.031   151.823   150.595   152.994   155.727   156.137   154.005   150.923   149.572   150.381   150.987   150.635   149.659   148.858   148.667   148.811   149.345   149.703   150.081   151.074   154.738   158.708   162.916   167.623   171.863   175.319   178.072   179.760   180.165   179.303   177.110   174.640   174.555   175.124   175.295   173.544   172.212   170.870   170.270   170.587   170.953   171.065   171.161   171.592   172.250   172.929   173.699   174.644   175.576   176.207   176.588   176.959   177.280   177.602   177.956   178.370   178.841   179.207   179.767   181.031   182.689   184.552   185.881   187.114   188.472   190.849   194.250   196.351   196.039   193.110   189.103   185.502   185.086   186.273   186.655   186.164   186.124   186.211
385.709   382.851   380.068   380.837   381.341   381.135   380.472   379.448   377.799   376.197   374.471   372.381   369.776   366.348   362.079   356.975   351.511   347.157   346.068   349.510   354.445   358.564   358.909   355.828   350.504   346.213   344.877   346.452   347.311   343.702   338.359   338.217   340.207   339.431   336.052   334.223   335.370   335.166   332.169   327.660   324.257   322.540   319.668   317.246   324.427   327.123   326.536   325.202   323.141   320.669   318.416   315.600   310.602   305.398   302.831   301.576   298.964   295.220   292.310   290.902   288.158   284.089   279.222   274.787   270.565   266.768   263.219   259.525   257.583   258.478   259.031   257.908   256.037   253.809   251.667   250.046   248.194   246.209   245.481   247.351   250.650   253.634   255.919   257.571   259.280   260.754   262.002   262.815   263.199   263.258   263.558   264.284   265.309   266.079   265.982   265.573   265.444   265.057   264.153   262.887   261.014   257.446   252.660   246.037   241.695   246.326   250.729   253.192   253.801   252.718   250.780   247.539   244.188   244.259   247.656   250.826   252.296   251.727   248.285   238.954   234.309   237.213   242.141   245.041   247.071   248.399   249.098   249.207   248.168   245.810   242.949   239.977   237.440   236.287   234.790   230.313   223.048   213.821   206.912   206.487   206.057   203.492   200.297   200.151   199.375   197.299   193.552   189.137   187.204   186.948   185.937   184.083   182.016   180.382   178.550   175.049   170.439   166.155   161.770   156.813   151.625   149.096   149.039   148.360   146.605   148.724   151.617   152.348   150.441   147.071   145.699   147.210   148.224   148.271   148.009   147.379   147.473   148.047   149.190   150.505   151.574   153.545   157.803   161.774   166.749   170.855   173.537   176.249   178.923   180.338   180.496   180.256   178.860   174.973   173.803   173.601   173.339   172.509   171.331   170.234   169.878   170.115   170.240   170.191   170.299   170.772   171.533   172.388   173.276   174.199   175.038   175.650   176.037   176.451   176.861   177.261   177.735   178.208   178.697   179.186   179.807   180.986   182.498   184.090   185.637   187.016   188.137   189.175   191.449   194.139   193.312   189.980   186.256   183.876   184.790   186.077   185.415   184.710   184.525   184.682
381.178   378.048   375.152   375.865   376.393   376.125   375.268   374.213   372.773   371.310   369.885   368.045   365.714   362.610   358.478   353.401   347.938   343.453   342.381   346.285   351.900   355.488   354.888   351.961   347.548   343.121   340.105   341.476   343.581   341.654   336.097   334.328   335.774   335.643   332.330   328.699   328.381   329.488   327.323   323.144   318.062   314.515   313.098   312.988   319.470   321.492   320.688   318.810   316.363   313.809   311.689   309.531   306.136   300.879   296.647   295.561   294.621   291.624   287.516   284.819   282.928   279.308   274.996   271.487   269.189   265.628   262.063   257.228   253.273   253.751   255.214   255.425   255.245   254.478   252.945   251.450   249.081   245.324   243.642   246.510   249.252   251.752   253.307   254.798   256.397   257.983   259.134   259.817   260.090   260.448   261.273   262.503   263.700   264.315   264.113   263.521   263.197   262.833   262.028   260.759   259.740   256.947   253.115   247.604   240.190   242.470   247.821   251.019   251.991   251.322   249.370   245.984   241.784   240.232   243.531   247.883   250.118   250.053   246.055   238.681   234.076   235.260   239.865   242.349   244.185   245.970   247.055   247.094   246.316   245.205   243.433   240.468   236.060   232.351   231.636   227.836   219.969   211.131   204.390   199.963   197.602   195.073   190.714   189.913   189.147   187.624   184.836   181.217   180.078   180.806   180.531   179.377   178.129   176.468   174.500   171.492   167.736   164.078   160.496   156.642   152.614   148.436   144.920   143.723   142.578   144.835   147.928   149.057   146.984   143.324   142.465   144.591   145.630   146.018   146.252   146.425   147.689   149.020   150.957   154.140   157.167   159.746   162.623   165.564   169.280   171.933   173.751   176.207   178.841   180.255   180.500   180.419   179.376   176.360   174.125   172.946   172.175   171.410   170.743   170.168   169.347   169.341   169.314   169.227   169.383   170.070   170.967   171.822   172.677   173.642   174.686   175.407   175.829   176.397   176.952   177.425   177.898   178.372   178.934   179.499   180.069   181.233   182.634   184.124   185.642   186.845   187.894   188.945   189.714   190.107   189.595   187.185   184.317   182.516   184.139   185.344   184.683   183.680   183.819   184.690
376.328   372.998   370.028   370.528   371.133   370.770   369.798   368.800   367.519   366.008   364.776   363.380   361.384   358.423   354.406   349.564   344.233   339.548   338.115   341.761   348.118   352.141   351.262   348.822   344.814   339.784   335.040   336.331   339.147   338.928   334.370   330.395   330.598   331.202   328.747   324.062   321.657   323.238   321.992   318.876   313.850   308.742   307.054   308.103   314.249   315.610   314.414   311.873   309.219   306.938   304.872   303.120   300.963   296.188   290.902   289.164   289.166   287.267   283.080   279.086   277.666   274.211   269.854   266.868   267.307   264.824   261.499   255.774   250.179   248.931   250.182   251.228   252.306   253.032   252.714   251.736   248.826   244.061   242.330   245.054   247.602   249.619   250.441   252.114   253.872   255.574   256.896   257.383   257.475   258.139   259.504   260.927   261.993   262.492   262.299   261.679   261.013   260.639   259.920   258.743   257.706   256.668   253.356   249.561   241.795   239.475   243.720   248.417   250.195   249.776   247.619   244.340   240.826   238.618   239.969   243.948   247.330   247.663   243.001   238.564   234.125   232.528   236.946   240.333   241.906   243.212   244.806   244.944   244.229   243.423   242.339   240.004   234.860   229.321   227.273   223.103   216.284   208.287   201.564   194.908   189.700   187.468   183.358   181.377   178.178   177.899   177.019   173.503   170.691   171.438   172.339   171.962   172.411   171.507   170.074   167.630   164.498   161.086   158.903   157.204   153.549   150.519   145.538   140.700   139.548   142.196   144.620   144.965   142.912   140.451   140.398   141.995   142.966   143.817   145.156   146.960   148.491   149.763   154.317   157.559   160.443   162.600   165.705   168.797   171.399   173.481   175.023   176.605   178.641   180.127   180.506   180.605   179.918   177.586   174.482   173.480   172.409   171.490   170.746   170.166   169.277   168.623   168.599   168.909   168.966   169.504   170.401   171.179   172.120   173.380   174.576   175.449   175.989   176.558   177.124   177.668   178.142   178.690   179.257   179.758   180.628   181.930   183.290   184.601   185.850   187.000   188.079   188.554   188.132   187.527   186.830   185.194   182.994   181.256   182.113   182.973   182.741   182.550   183.629   185.054
