ncols        164
nrows        32
xllcorner    10380
yllcorner    -11430
cellsize     30.000000000000
NODATA_value  -999
736.31475830078125 745.2127685546875 761.9105224609375 757.8243408203125 761.58038330078125 746.33917236328125 730.08489990234375 717.443115234375 706.98138427734375 706.28729248046875 715.49884033203125 727.71417236328125 716.0926513671875 729.8975830078125 730.086669921875 742.82366943359375 729.1666259765625 723.31890869140625 737.24029541015625 740.306640625 735.64990234375 730.1429443359375 722.77166748046875 715.73101806640625 710.16552734375 709.90057373046875 710.9044189453125 694.61053466796875 679.12982177734375 686.68414306640625 700.17242431640625 691.123046875 680.42694091796875 685.7437744140625 693.94158935546875 706.17059326171875 693.80609130859375 682.45758056640625 696.722412109375 707.57025146484375 701.930908203125 700.65936279296875 694.88262939453125 697.4493408203125 710.04241943359375 705.6578369140625 699.01025390625 687.74310302734375 672.6429443359375 669.11328125 667.27386474609375 670.203369140625 673.77313232421875 676.9874267578125 687.13055419921875 688.67645263671875 690.031494140625 676.9068603515625 674.3505859375 688.5582275390625 690.56390380859375 695.34356689453125 701.555419921875 711.81036376953125 707.978271484375 704.358154296875 701.22235107421875 697.97406005859375 690.48321533203125 708.2862548828125 711.4930419921875 704.52325439453125 707.6807861328125 711.928466796875 703.7252197265625 710.9464111328125 710.8143310546875 710.82696533203125 714.11114501953125 711.816162109375 717.3358154296875 722.02691650390625 711.83087158203125 698.9752197265625 700.59393310546875 708.58978271484375 713.28302001953125 717.78424072265625 721.26715087890625 722.52294921875 723.8922119140625 730.29156494140625 733.328369140625 737.2701416015625 735.6435546875 732.97698974609375 737.27178955078125 740.3365478515625 741.7261962890625 744.273681640625 741.89117431640625 727.72393798828125 736.28863525390625 752.4464111328125 757.432373046875 762.56964111328125 773.57525634765625 792.844482421875 804.675537109375 802.31402587890625 787.6932373046875 776.88427734375 777.0804443359375 779.26904296875 782.7298583984375 784.49981689453125 787.3824462890625 795.06500244140625 806.24273681640625 800.2509765625 797.63800048828125 810.13836669921875 816.20330810546875 817.133056640625 819.466796875 821.28350830078125 816.6402587890625 810.86871337890625 822.99786376953125 844.119140625 854.99267578125 859.03997802734375 854.70477294921875 848.84307861328125 862.811279296875 877.16448974609375 889.90673828125 888.08270263671875 886.47918701171875 878.0458984375 874.345947265625 870.70880126953125 869.34344482421875 868.8499755859375 867.89129638671875 867.76470947265625 865.99346923828125 867.8868408203125 871.7955322265625 862.867919921875 857.7926025390625 859.90576171875 864.5599365234375 852.5535888671875 849.59722900390625 850.05694580078125 851.375244140625 849.71051025390625 849.46063232421875 848.1185302734375 846.96221923828125 847.3055419921875 848.9395751953125 851.7625732421875
738.31298828125 746.51275634765625 762.95281982421875 762.60247802734375 752.49627685546875 737.4998779296875 714.2647705078125 713.64276123046875 719.00408935546875 710.24725341796875 728.9171142578125 736.78521728515625 724.4521484375 743.05029296875 743.54949951171875 745.94891357421875 730.3138427734375 732.75537109375 743.00628662109375 738.15350341796875 722.79974365234375 709.28753662109375 703.74383544921875 694.32562255859375 689.255615234375 688.5604248046875 694.294189453125 687.33544921875 683.4268798828125 694.94317626953125 701.612060546875 690.66229248046875 682.77154541015625 698.03546142578125 698.65472412109375 709.933837890625 691.17388916015625 689.9471435546875 709.110595703125 714.59271240234375 704.75921630859375 705.36199951171875 703.35687255859375 702.16851806640625 707.98541259765625 696.34429931640625 683.07501220703125 671.96832275390625 670.04205322265625 688.27276611328125 687.12274169921875 690.5074462890625 670.37030029296875 674.8758544921875 685.06048583984375 693.03302001953125 695.05584716796875 689.64715576171875 683.6976318359375 684.930908203125 694.22314453125 695.7286376953125 700.8837890625 707.94189453125 714.98516845703125 710.77740478515625 707.17974853515625 702.86083984375 693.80755615234375 703.85516357421875 714.7099609375 708.46673583984375 709.388916015625 714.1920166015625 706.127197265625 714.29376220703125 711.77435302734375 717.2548828125 721.13775634765625 717.630859375 718.36932373046875 725.34521484375 714.0433349609375 700.3680419921875 700.18292236328125 705.177490234375 711.9246826171875 715.97210693359375 718.89935302734375 721.997802734375 722.8218994140625 725.9013671875 728.9407958984375 734.13702392578125 740.29766845703125 739.11077880859375 738.73126220703125 742.47381591796875 744.7161865234375 746.40576171875 742.50335693359375 728.97802734375 743.27587890625 753.66717529296875 759.9881591796875 772.584228515625 783.71697998046875 792.90655517578125 784.89605712890625 778.910888671875 774.7552490234375 769.36956787109375 773.56304931640625 779.08270263671875 779.08270263671875 779.08270263671875 781.07562255859375 787.04248046875 789.81988525390625 791.32025146484375 794.9619140625 797.5618896484375 801.95843505859375 802.75933837890625 803.2911376953125 805.251953125 807.79681396484375 818.82452392578125 830.21234130859375 849.4400634765625 861.44976806640625 869.43316650390625 865.46905517578125 860.26934814453125 863.92730712890625 877.73101806640625 890.7947998046875 893.13848876953125 885.9803466796875 878.242431640625 878.7333984375 875.98583984375 874.632568359375 875.976318359375 872.89007568359375 873.223876953125 873.62969970703125 877.20428466796875 872.50225830078125 870.5018310546875 869.86431884765625 870.935302734375 859.56671142578125 849.809814453125 849.79376220703125 856.0616455078125 861.6259765625 856.70013427734375 856.392822265625 849.2677001953125 847.91131591796875 847.63482666015625 849.20361328125 855.454833984375
739.57452392578125 751.33477783203125 761.195556640625 748.0750732421875 736.940185546875 721.299560546875 714.7135009765625 724.64129638671875 722.412109375 722.1827392578125 730.81207275390625 743.20013427734375 732.1910400390625 748.4844970703125 752.73828125 743.54644775390625 736.24932861328125 744.74285888671875 743.9139404296875 722.6309814453125 703.92291259765625 698.9427490234375 696.8701171875 697.71038818359375 700.4921875 688.443603515625 685.664794921875 683.893798828125 688.997802734375 705.31207275390625 697.232421875 687.9752197265625 695.0509033203125 707.19183349609375 705.9208984375 711.05804443359375 691.3062744140625 695.70391845703125 714.411376953125 716.83074951171875 705.58599853515625 710.11865234375 712.030517578125 712.49261474609375 696.35052490234375 689.7572021484375 678.70965576171875 680.7080078125 682.68682861328125 695.8428955078125 700.31982421875 680.55511474609375 674.75341796875 679.59381103515625 684.34478759765625 693.57586669921875 699.230712890625 694.2806396484375 688.88116455078125 684.46453857421875 699.1529541015625 701.26629638671875 700.58782958984375 705.51434326171875 712.7437744140625 719.2724609375 712.1397705078125 710.07183837890625 700.80078125 698.86785888671875 713.272705078125 711.71990966796875 711.7406005859375 717.01824951171875 709.0145263671875 717.15557861328125 715.6368408203125 723.4482421875 724.0927734375 722.35009765625 722.91766357421875 730.29736328125 711.619140625 702.08746337890625 703.459716796875 705.3001708984375 709.77777099609375 711.048095703125 714.3984375 718.0843505859375 718.72662353515625 721.72802734375 725.60809326171875 728.18865966796875 731.04022216796875 737.8126220703125 743.8922119140625 745.97076416015625 747.30206298828125 748.7662353515625 748.634521484375 731.370849609375 746.64105224609375 754.31939697265625 759.78338623046875 771.35125732421875 790.51312255859375 778.75091552734375 772.3067626953125 769.36956787109375 769.36956787109375 774.72088623046875 789.62371826171875 792.74444580078125 791.67352294921875 784.32220458984375 783.75311279296875 788.3316650390625 789.18603515625 789.8614501953125 795.74493408203125 794.9619140625 794.9619140625 802.1324462890625 811.03857421875 816.05670166015625 822.96630859375 833.724365234375 839.9625244140625 849.435791015625 855.90496826171875 872.131591796875 879.90447998046875 871.45477294921875 870.5045166015625 884.6949462890625 894.245849609375 896.03411865234375 890.26544189453125 886.38739013671875 888.04449462890625 886.0206298828125 886.428955078125 886.06024169921875 883.58966064453125 882.4539794921875 881.80596923828125 878.4578857421875 875.46954345703125 872.73297119140625 870.8604736328125 861.245361328125 850.5948486328125 851.58929443359375 855.74859619140625 864.055419921875 868.84136962890625 865.48333740234375 860.27117919921875 850.4886474609375 848.3570556640625 847.8389892578125 848.84417724609375 850.7481689453125
743.1317138671875 759.16717529296875 747.265625 730.23541259765625 720.71649169921875 720.71649169921875 723.6627197265625 738.64703369140625 724.10040283203125 731.178466796875 742.6217041015625 750.0037841796875 743.60394287109375 743.90374755859375 756.8846435546875 747.14874267578125 751.2158203125 749.891357421875 736.4920654296875 712.4859619140625 703.20501708984375 713.8140869140625 717.35955810546875 717.17523193359375 697.1641845703125 697.64056396484375 695.69281005859375 693.86224365234375 706.36810302734375 710.785400390625 697.8043212890625 690.92095947265625 710.101806640625 717.1409912109375 712.7874755859375 710.37322998046875 695.04876708984375 707.82257080078125 718.9844970703125 712.01104736328125 715.947509765625 715.0697021484375 716.702880859375 701.88153076171875 683.90838623046875 679.01580810546875 681.826904296875 692.6021728515625 700.42401123046875 701.92730712890625 700.655029296875 676.25689697265625 684.882080078125 685.242431640625 684.9222412109375 695.0596923828125 703.4910888671875 697.0748291015625 690.41107177734375 687.60638427734375 701.08721923828125 706.18548583984375 708.410888671875 704.59405517578125 711.00823974609375 722.260498046875 717.89556884765625 714.95892333984375 700.7220458984375 703.06787109375 714.7393798828125 716.0699462890625 716.65472412109375 720.09423828125 712.97235107421875 720.599853515625 718.034423828125 727.2669677734375 731.20904541015625 732.34783935546875 732.75872802734375 727.46295166015625 707.54705810546875 711.18719482421875 707.14715576171875 711.95196533203125 708.7447509765625 710.16607666015625 714.6392822265625 717.47515869140625 720.88739013671875 725.51495361328125 730.55426025390625 733.16326904296875 733.53619384765625 734.36407470703125 738.485595703125 743.31524658203125 748.1966552734375 751.48980712890625 752.52996826171875 738.85699462890625 743.67034912109375 759.02252197265625 762.6033935546875 780.13995361328125 784.296630859375 766.8885498046875 762.9493408203125 778.88128662109375 783.265380859375 784.8203125 791.4981689453125 798.3372802734375 797.90496826171875 793.0965576171875 796.05224609375 795.50238037109375 800.74139404296875 806.5501708984375 811.5692138671875 815.00457763671875 808.43463134765625 799.033935546875 809.18841552734375 818.07684326171875 828.444580078125 835.82177734375 847.2581787109375 852.625 857.59820556640625 867.673828125 886.62884521484375 891.92694091796875 892.1966552734375 897.127197265625 902.6756591796875 893.14813232421875 892.7008056640625 891.78436279296875 890.9229736328125 890.443603515625 890.14093017578125 879.95904541015625 877.62884521484375 878.6322021484375 878.65924072265625 869.00982666015625 866.84063720703125 861.14324951171875 859.888916015625 858.08868408203125 852.0338134765625 855.12109375 859.5511474609375 870.0869140625 865.4425048828125 852.65887451171875 849.541015625 848.9217529296875 848.29534912109375 848.5179443359375 848.83709716796875 850.320556640625
753.42803955078125 747.98101806640625 729.36297607421875 728.73345947265625 733.79400634765625 741.5045166015625 732.8431396484375 738.7513427734375 727.645751953125 742.66461181640625 757.277587890625 762.03076171875 758.66510009765625 747.86932373046875 761.23968505859375 753.46832275390625 740.380615234375 728.72955322265625 715.74566650390625 707.51263427734375 707.6744384765625 723.29229736328125 717.51385498046875 709.58746337890625 697.1641845703125 708.67498779296875 714.4442138671875 710.64678955078125 721.03509521484375 713.04449462890625 700.656005859375 690.92095947265625 712.7325439453125 721.37274169921875 718.74560546875 711.28253173828125 699.4522705078125 716.1568603515625 725.3123779296875 715.34783935546875 720.129638671875 723.68951416015625 705.83502197265625 688.658935546875 690.6099853515625 686.216796875 694.19140625 704.12811279296875 703.2625732421875 698.74493408203125 692.1004638671875 676.25689697265625 687.91412353515625 691.7864990234375 688.17364501953125 694.87689208984375 706.8519287109375 699.025390625 691.27276611328125 689.90240478515625 700.33892822265625 706.0672607421875 712.04010009765625 706.65447998046875 713.69256591796875 724.81915283203125 724.30755615234375 720.70721435546875 704.5433349609375 704.41302490234375 717.67279052734375 720.16937255859375 724.27825927734375 725.51214599609375 714.57275390625 723.34527587890625 720.50103759765625 728.87188720703125 734.69940185546875 739.27288818359375 734.75665283203125 720.55523681640625 707.54705810546875 710.47418212890625 719.463134765625 716.9501953125 711.8941650390625 715.77032470703125 722.2491455078125 722.44989013671875 724.2333984375 729.86859130859375 735.1649169921875 740.8541259765625 739.283447265625 738.7716064453125 738.79144287109375 741.9732666015625 747.5360107421875 752.883544921875 754.6387939453125 740.41571044921875 746.7154541015625 760.70294189453125 768.5589599609375 781.86419677734375 768.47308349609375 762.953369140625 762.462646484375 783.0946044921875 789.37548828125 792.02203369140625 795.29620361328125 799.68365478515625 804.57354736328125 804.7615966796875 809.4241943359375 811.7479248046875 807.3099365234375 804.975341796875 807.27886962890625 813.15557861328125 823.0113525390625 815.76300048828125 804.15057373046875 817.341796875 828.64288330078125 837.1859130859375 851.494140625 858.54376220703125 873.6776123046875 883.54107666015625 885.5614013671875 890.129638671875 892.1146240234375 898.038330078125 899.108642578125 886.41558837890625 882.7252197265625 886.03302001953125 879.8135986328125 878.67449951171875 883.5689697265625 874.44744873046875 868.56170654296875 874.4520263671875 869.14678955078125 861.61505126953125 858.63629150390625 857.196533203125 856.37371826171875 855.83587646484375 855.45611572265625 859.02496337890625 868.51031494140625 872.9376220703125 857.401123046875 849.61163330078125 849.03228759765625 849.2720947265625 848.886962890625 849.88323974609375 850.5333251953125 851.39422607421875
742.135498046875 733.08251953125 735.41180419921875 746.91046142578125 748.67474365234375 753.2451171875 743.69879150390625 741.69940185546875 732.45391845703125 746.39654541015625 762.25775146484375 772.18511962890625 765.87908935546875 753.9127197265625 762.32415771484375 737.68695068359375 716.645751953125 709.38653564453125 709.38653564453125 709.38922119140625 723.93212890625 710.99041748046875 703.84832763671875 699.1478271484375 707.0245361328125 724.34576416015625 730.29736328125 725.6895751953125 727.59716796875 712.428466796875 700.35430908203125 694.47186279296875 705.9617919921875 725.33978271484375 724.71893310546875 710.9368896484375 712.98974609375 721.67584228515625 725.09881591796875 726.86639404296875 720.42559814453125 721.297119140625 698.7794189453125 689.819091796875 700.6151123046875 691.7921142578125 695.2498779296875 704.8795166015625 708.48779296875 692.49853515625 679.7479248046875 693.359375 692.51898193359375 695.99896240234375 694.93426513671875 697.6678466796875 707.3885498046875 695.856201171875 689.90240478515625 693.9990234375 702.36737060546875 707.185302734375 714.54876708984375 708.370849609375 717.7255859375 724.544189453125 729.2637939453125 722.90679931640625 708.5924072265625 708.7864990234375 721.71923828125 727.6070556640625 731.416015625 729.37322998046875 717.76287841796875 725.4857177734375 723.43060302734375 731.6727294921875 736.21630859375 737.96893310546875 732.92987060546875 721.2952880859375 708.842041015625 709.4840087890625 721.80908203125 717.9234619140625 716.05059814453125 719.43206787109375 726.4024658203125 727.48431396484375 727.673095703125 730.18731689453125 735.3233642578125 740.6878662109375 746.97991943359375 745.4901123046875 744.6964111328125 743.92138671875 747.519287109375 752.55078125 759.38848876953125 750.0504150390625 740.41571044921875 759.4268798828125 765.01397705078125 765.23785400390625 763.19818115234375 757.43408203125 768.68890380859375 774.881591796875 782.88018798828125 788.5096435546875 792.459228515625 800.62945556640625 804.12939453125 807.23486328125 809.122802734375 809.111083984375 814.568359375 812.52880859375 813.49359130859375 820.18798828125 825.0159912109375 825.4052734375 815.97552490234375 813.582763671875 826.779541015625 838.74188232421875 853.58770751953125 868.35650634765625 870.6885986328125 865.328369140625 868.4522705078125 879.8873291015625 892.86474609375 900.60693359375 894.31463623046875 887.86798095703125 878.6019287109375 877.49884033203125 876.13104248046875 870.80987548828125 870.5634765625 869.8800048828125 865.2799072265625 865.21636962890625 861.2474365234375 858.63629150390625 858.74664306640625 860.1710205078125 858.62774658203125 857.53619384765625 858.41815185546875 865.200927734375 873.87249755859375 858.767822265625 855.2557373046875 850.0333251953125 851.2520751953125 857.52099609375 849.61285400390625 852.5223388671875 853.5498046875 865.08685302734375
740.5283203125 751.04632568359375 757.163818359375 761.400146484375 767.6248779296875 755.28369140625 757.27294921875 744.76568603515625 736.47705078125 753.78704833984375 768.0494384765625 778.11309814453125 772.90863037109375 762.66815185546875 760.23193359375 735.15631103515625 715.56329345703125 721.2274169921875 726.8116455078125 731.24468994140625 730.301025390625 710.902099609375 722.38848876953125 708.51300048828125 709.99688720703125 730.57354736328125 739.47991943359375 737.959228515625 727.162353515625 712.29437255859375 717.25335693359375 702.03460693359375 703.3018798828125 721.31396484375 728.05908203125 710.9368896484375 725.29315185546875 734.11761474609375 729.067626953125 732.7293701171875 731.14593505859375 714.72491455078125 699.47406005859375 694.37908935546875 701.3778076171875 691.7921142578125 705.36767578125 715.750244140625 708.60504150390625 686.2713623046875 692.697265625 706.00732421875 697.60687255859375 699.5089111328125 702.70721435546875 703.98590087890625 696.99053955078125 694.69830322265625 698.51129150390625 702.67205810546875 711.90484619140625 717.3961181640625 721.460693359375 713.3350830078125 713.29931640625 719.71160888671875 730.272216796875 723.62176513671875 711.60906982421875 708.5924072265625 726.2490234375 735.0301513671875 738.07684326171875 728.0106201171875 721.93292236328125 728.26416015625 728.518310546875 738.98382568359375 738.7691650390625 732.45037841796875 727.08642578125 717.95330810546875 709.7208251953125 719.204345703125 725.823974609375 720.43115234375 721.2901611328125 719.00592041015625 731.64874267578125 733.197998046875 734.93206787109375 736.15887451171875 736.8143310546875 740.16546630859375 748.1610107421875 752.5118408203125 750.85205078125 747.4659423828125 748.61517333984375 753.4119873046875 760.557861328125 761.59161376953125 744.50592041015625 746.043212890625 747.63360595703125 749.9478759765625 750.86651611328125 753.37896728515625 756.39434814453125 761.1982421875 775.9246826171875 780.72979736328125 780.88031005859375 781.2276611328125 792.76495361328125 799.078125 802.0091552734375 802.00103759765625 811.21484375 820.2119140625 816.647216796875 825.64031982421875 834.5677490234375 834.96661376953125 820.72589111328125 813.582763671875 827.55517578125 838.18902587890625 846.87109375 847.54803466796875 851.47845458984375 861.00836181640625 876.37396240234375 891.66845703125 900.7625732421875 898.21722412109375 885.61236572265625 879.39300537109375 877.2296142578125 875.24688720703125 872.24249267578125 870.063232421875 867.896240234375 866.4127197265625 866.84417724609375 864.25433349609375 859.30474853515625 858.9422607421875 868.35125732421875 871.462646484375 860.74261474609375 859.831787109375 868.3902587890625 873.69378662109375 863.82470703125 856.22735595703125 850.3524169921875 852.95648193359375 862.94671630859375 859.207763671875 851.1348876953125 851.9698486328125 857.5948486328125 864.83837890625
741.8978271484375 760.13153076171875 776.57415771484375 774.997802734375 776.4854736328125 758.68292236328125 767.789794921875 744.40594482421875 744.145263671875 758.13031005859375 776.455810546875 786.4278564453125 778.54595947265625 773.43450927734375 755.47528076171875 734.94647216796875 717.9359130859375 730.41693115234375 748.92462158203125 747.85986328125 726.85845947265625 719.506591796875 734.63214111328125 720.0694580078125 708.51300048828125 729.6317138671875 748.927978515625 740.6051025390625 723.619873046875 724.756103515625 728.88934326171875 709.13385009765625 705.9505615234375 724.7117919921875 728.24456787109375 716.9019775390625 731.60601806640625 736.5162353515625 740.51763916015625 732.8983154296875 716.481201171875 699.47406005859375 700.2523193359375 703.7615966796875 697.44403076171875 696.11444091796875 715.3770751953125 724.3455810546875 709.1826171875 691.91046142578125 697.13629150390625 709.58392333984375 703.29473876953125 708.76251220703125 711.1368408203125 704.848388671875 697.92236328125 704.26312255859375 702.9976806640625 705.5845947265625 712.77392578125 724.23504638671875 727.635009765625 720.389892578125 716.50927734375 722.05828857421875 729.92718505859375 723.95062255859375 709.25775146484375 715.3536376953125 731.4219970703125 737.98931884765625 739.47955322265625 730.21173095703125 728.94793701171875 729.3431396484375 733.4884033203125 743.0242919921875 739.18011474609375 730.01519775390625 722.78594970703125 714.8673095703125 717.271240234375 726.2515869140625 728.64764404296875 725.63226318359375 722.318115234375 719.389404296875 728.440185546875 737.0322265625 740.1260986328125 738.87384033203125 739.28662109375 747.26055908203125 748.44012451171875 754.61328125 755.92095947265625 749.82989501953125 750.84576416015625 755.3873291015625 759.80145263671875 765.87353515625 762.3133544921875 751.34259033203125 757.982421875 763.69403076171875 767.64453125 766.39776611328125 769.00506591796875 766.8310546875 764.86102294921875 766.7630615234375 768.7315673828125 773.1983642578125 777.3079833984375 789.74041748046875 791.90362548828125 793.3802490234375 806.1435546875 815.55810546875 818.08251953125 821.2271728515625 829.94598388671875 840.5596923828125 828.33258056640625 813.582763671875 818.5040283203125 827.35845947265625 830.49176025390625 842.30340576171875 852.047119140625 867.79949951171875 878.89410400390625 881.605712890625 889.839599609375 900.5968017578125 888.259765625 878.776611328125 877.9298095703125 879.57550048828125 876.5511474609375 876.11981201171875 870.22528076171875 868.82843017578125 871.859130859375 865.93121337890625 859.380126953125 860.10955810546875 871.9564208984375 877.06207275390625 866.087158203125 865.14007568359375 877.52301025390625 872.15728759765625 862.6707763671875 855.26568603515625 856.49761962890625 866.56005859375 865.7374267578125 857.00250244140625 851.97802734375 851.1348876953125 854.690673828125 857.31365966796875
745.76336669921875 760.39447021484375 782.462890625 786.849365234375 783.188720703125 772.60162353515625 768.43865966796875 750.75079345703125 756.8690185546875 764.31390380859375 784.2730712890625 791.6455078125 778.23382568359375 769.4493408203125 754.0523681640625 735.748779296875 722.21148681640625 740.02667236328125 756.2919921875 741.39031982421875 723.5458984375 737.69525146484375 749.9534912109375 732.21368408203125 711.546875 731.1475830078125 751.99383544921875 740.21966552734375 733.2559814453125 735.4410400390625 729.29315185546875 708.12567138671875 708.40472412109375 727.6357421875 728.93499755859375 732.23663330078125 746.33526611328125 744.5457763671875 739.421142578125 723.5296630859375 704.43499755859375 714.61431884765625 711.32257080078125 700.4283447265625 705.6697998046875 716.96331787109375 724.94091796875 732.2034912109375 714.04901123046875 694.23468017578125 703.47479248046875 715.0743408203125 707.910888671875 711.5325927734375 712.18182373046875 701.11395263671875 704.845947265625 712.22247314453125 709.15380859375 709.5970458984375 713.435791015625 725.2994384765625 731.082763671875 720.720947265625 719.12506103515625 728.05291748046875 732.97613525390625 718.8282470703125 714.4859619140625 723.45379638671875 731.93365478515625 738.77593994140625 736.88031005859375 728.94793701171875 734.231689453125 734.26226806640625 742.33587646484375 744.21563720703125 736.6895751953125 728.16717529296875 721.29962158203125 715.17987060546875 717.20977783203125 729.12554931640625 730.01129150390625 726.90667724609375 723.603515625 722.76953125 727.40447998046875 736.3404541015625 738.524658203125 739.19903564453125 738.914794921875 744.96051025390625 750.4501953125 757.76708984375 760.8201904296875 759.10284423828125 750.505615234375 754.69970703125 758.94024658203125 766.454345703125 769.2828369140625 768.32952880859375 768.28887939453125 776.5814208984375 782.85565185546875 782.68597412109375 779.48834228515625 774.72216796875 782.72979736328125 782.6041259765625 788.1395263671875 789.45635986328125 788.35650634765625 779.20843505859375 784.87646484375 786.1458740234375 801.1654052734375 818.39434814453125 819.7200927734375 822.45770263671875 830.32489013671875 841.55084228515625 835.23358154296875 817.72900390625 821.9288330078125 830.2254638671875 840.14599609375 845.8770751953125 861.9810791015625 864.76617431640625 864.33441162109375 871.1549072265625 886.12127685546875 899.05987548828125 891.794921875 879.33209228515625 881.220458984375 886.11181640625 885.61419677734375 882.49237060546875 873.4349365234375 874.705322265625 870.76190185546875 864.68914794921875 859.76947021484375 864.51922607421875 874.0450439453125 880.489013671875 877.46917724609375 876.74029541015625 875.14752197265625 866.3585205078125 859.94085693359375 855.5447998046875 861.2919921875 871.72430419921875 867.97955322265625 862.44964599609375 854.22210693359375 855.5355224609375 860.35955810546875 863.24664306640625
748.390625 764.97930908203125 788.0673828125 803.65509033203125 797.28009033203125 791.8387451171875 772.14093017578125 766.6982421875 772.322265625 778.44580078125 793.75286865234375 788.36767578125 772.05169677734375 756.9664306640625 739.000244140625 726.0816650390625 728.0736083984375 748.68511962890625 761.08624267578125 742.61932373046875 731.018310546875 753.13970947265625 756.03515625 734.5595703125 714.2586669921875 733.1644287109375 755.2835693359375 742.30828857421875 743.78692626953125 743.049072265625 726.0982666015625 721.04876708984375 716.0177001953125 732.05511474609375 734.5123291015625 740.4993896484375 752.109375 740.91339111328125 727.16851806640625 712.2247314453125 716.54742431640625 724.40093994140625 706.2928466796875 713.5394287109375 718.73260498046875 733.85736083984375 736.46142578125 732.620849609375 710.4046630859375 696.0477294921875 710.78936767578125 727.385986328125 723.273193359375 716.1962890625 716.4346923828125 701.48699951171875 711.688720703125 717.1361083984375 712.3834228515625 716.27996826171875 720.93487548828125 731.981201171875 729.46221923828125 721.56243896484375 722.9462890625 728.00640869140625 731.4078369140625 717.70220947265625 717.82373046875 730.35333251953125 737.45623779296875 743.5780029296875 735.04827880859375 733.05535888671875 743.326416015625 741.96087646484375 748.38568115234375 743.086669921875 732.4432373046875 724.44964599609375 718.4049072265625 721.58953857421875 720.239013671875 726.75836181640625 731.702392578125 730.225341796875 726.27105712890625 729.9560546875 727.2625732421875 736.34295654296875 742.37518310546875 743.89593505859375 745.677978515625 748.576171875 750.3656005859375 754.78515625 761.87835693359375 761.649658203125 754.42755126953125 755.2183837890625 759.989501953125 766.68756103515625 770.90570068359375 772.7298583984375 770.999267578125 776.16827392578125 785.53466796875 788.23785400390625 787.89190673828125 782.264404296875 782.69317626953125 794.59637451171875 804.26708984375 810.3779296875 802.053955078125 787.09014892578125 794.67852783203125 787.3116455078125 802.77020263671875 813.93359375 819.26708984375 824.63433837890625 827.69854736328125 836.13592529296875 841.98162841796875 832.75244140625 821.78973388671875 829.72015380859375 841.261962890625 847.87451171875 855.8209228515625 854.89862060546875 859.708984375 874.7015380859375 884.56805419921875 894.9476318359375 896.53094482421875 883.96435546875 890.35650634765625 891.55291748046875 890.86529541015625 887.0528564453125 882.51318359375 873.539306640625 867.2730712890625 863.56805419921875 865.75421142578125 866.54791259765625 867.9368896484375 874.05072021484375 881.8431396484375 880.6055908203125 870.90533447265625 865.3001708984375 860.67303466796875 858.48394775390625 867.247802734375 877.53997802734375 874.7525634765625 868.9293212890625 856.260009765625 855.5631103515625 861.3397216796875 869.36572265625
754.44903564453125 762.14996337890625 785.6690673828125 806.09136962890625 811.76959228515625 800.60052490234375 781.3372802734375 782.45831298828125 787.70037841796875 790.91748046875 803.3416748046875 786.78192138671875 769.50567626953125 749.55657958984375 728.08258056640625 732.98974609375 744.787353515625 761.71112060546875 765.90972900390625 748.20416259765625 737.0128173828125 759.540771484375 759.45733642578125 735.00701904296875 717.967041015625 735.59649658203125 759.6864013671875 749.0872802734375 754.84613037109375 754.0736083984375 731.43121337890625 735.27783203125 724.99139404296875 739.7030029296875 739.37451171875 750.20391845703125 744.61920166015625 722.73358154296875 716.9110107421875 720.796875 732.615966796875 721.180419921875 709.13055419921875 722.2789306640625 733.45574951171875 744.2861328125 736.65936279296875 722.2147216796875 704.81097412109375 707.90216064453125 721.428466796875 734.1051025390625 723.47015380859375 724.6856689453125 723.21844482421875 706.08428955078125 713.8143310546875 724.26373291015625 715.44354248046875 722.1708984375 728.15362548828125 740.39520263671875 728.4521484375 724.58203125 729.707763671875 731.631591796875 733.92559814453125 722.25531005859375 717.70220947265625 722.82958984375 738.92498779296875 743.5601806640625 735.6533203125 742.39984130859375 747.99420166015625 749.27850341796875 749.2777099609375 739.6712646484375 728.6246337890625 720.26788330078125 718.4049072265625 727.78533935546875 722.7435302734375 726.1314697265625 731.22393798828125 734.10015869140625 729.49078369140625 733.18963623046875 732.51904296875 730.12713623046875 741.210693359375 745.662353515625 749.4359130859375 752.61474609375 759.74310302734375 761.917236328125 764.95111083984375 763.21856689453125 760.400146484375 759.51605224609375 759.7364501953125 765.97467041015625 771.58642578125 776.2684326171875 776.13323974609375 776.94854736328125 785.82733154296875 792.36541748046875 794.198974609375 792.4188232421875 785.26129150390625 788.69329833984375 798.67626953125 808.921875 810.585205078125 803.7811279296875 801.6895751953125 794.083740234375 795.580810546875 807.1204833984375 815.64605712890625 822.0386962890625 825.36346435546875 832.2745361328125 840.48333740234375 841.529541015625 834.4381103515625 830.47918701171875 834.1463623046875 843.46380615234375 847.48944091796875 851.47210693359375 859.59326171875 869.6134033203125 882.01629638671875 893.78173828125 900.2801513671875 896.07867431640625 892.49053955078125 887.62646484375 883.5858154296875 879.8450927734375 871.95013427734375 868.1243896484375 866.271240234375 867.79742431640625 871.86688232421875 876.2462158203125 874.9525146484375 880.11541748046875 883.07391357421875 876.9141845703125 868.48602294921875 864.84674072265625 861.716796875 865.49163818359375 877.41888427734375 884.968505859375 882.48046875 874.45050048828125 858.30596923828125 855.5631103515625 857.6873779296875 862.44451904296875
761.77117919921875 764.8660888671875 786.25677490234375 806.33392333984375 823.5545654296875 810.2696533203125 799.5787353515625 799.35870361328125 805.0013427734375 807.46697998046875 806.55364990234375 784.87908935546875 762.476318359375 740.3798828125 729.593994140625 748.027587890625 755.71636962890625 770.53424072265625 773.3634033203125 756.01788330078125 743.01837158203125 764.6812744140625 761.70751953125 732.61297607421875 727.152099609375 746.73773193359375 765.30145263671875 760.111328125 769.255615234375 753.00494384765625 737.7083740234375 746.21832275390625 738.5855712890625 752.32183837890625 747.28265380859375 757.4234619140625 736.8548583984375 720.369384765625 737.06463623046875 737.65411376953125 729.87109375 714.57281494140625 720.6749267578125 729.81085205078125 745.077392578125 742.6383056640625 725.48431396484375 707.60791015625 706.6241455078125 715.36566162109375 731.238525390625 737.51263427734375 727.41754150390625 730.2259521484375 729.6719970703125 715.69097900390625 712.82122802734375 730.9466552734375 725.5048828125 722.26263427734375 728.2850341796875 742.64642333984375 730.2889404296875 727.41046142578125 734.22802734375 739.64764404296875 739.07574462890625 728.25787353515625 723.502197265625 718.59893798828125 736.0250244140625 745.0830078125 739.4246826171875 746.77056884765625 751.6666259765625 751.33905029296875 746.5933837890625 732.788330078125 721.81219482421875 719.63482666015625 719.2978515625 730.82232666015625 723.81072998046875 733.35595703125 730.39849853515625 738.197509765625 734.36798095703125 735.546142578125 738.20538330078125 735.2977294921875 737.736572265625 740.87103271484375 744.90057373046875 747.56085205078125 752.1219482421875 756.67022705078125 761.05462646484375 768.50982666015625 770.27734375 767.3912353515625 765.04791259765625 763.4619140625 769.8968505859375 777.8524169921875 781.4854736328125 780.070068359375 782.2381591796875 788.5716552734375 793.15826416015625 800.3485107421875 792.6304931640625 791.56378173828125 792.59783935546875 803.232421875 815.1754150390625 813.7987060546875 806.1441650390625 806.32177734375 794.21337890625 805.45379638671875 812.72601318359375 809.5322265625 807.94171142578125 815.96612548828125 833.4112548828125 847.55450439453125 844.28411865234375 837.61138916015625 837.297119140625 842.81231689453125 853.2579345703125 859.12445068359375 859.6922607421875 867.788818359375 880.86651611328125 891.22186279296875 899.72003173828125 893.97308349609375 884.75909423828125 878.60797119140625 875.56341552734375 872.6878662109375 869.3804931640625 868.82391357421875 869.8673095703125 869.821044921875 878.66119384765625 886.1171875 887.83697509765625 878.64373779296875 874.39263916015625 869.66839599609375 867.7637939453125 864.7066650390625 866.13720703125 872.11944580078125 882.661865234375 890.7012939453125 889.254150390625 876.68878173828125 860.22076416015625 859.70037841796875 856.8035888671875 858.29327392578125
769.46771240234375 770.4462890625 786.8687744140625 806.52813720703125 827.51220703125 824.76806640625 810.02783203125 818.38592529296875 822.72735595703125 819.0963134765625 798.69781494140625 778.86029052734375 759.84014892578125 736.94775390625 746.44085693359375 755.9005126953125 770.98016357421875 783.00726318359375 782.26055908203125 767.8323974609375 751.022216796875 769.1961669921875 760.24066162109375 730.7041015625 744.42724609375 759.72296142578125 777.60205078125 776.406982421875 770.13787841796875 748.13677978515625 751.35845947265625 751.61199951171875 752.40435791015625 762.3046875 757.5087890625 760.2645263671875 732.478759765625 728.80401611328125 753.23291015625 752.02532958984375 733.31817626953125 734.182861328125 739.0426025390625 750.39337158203125 752.991455078125 738.13134765625 724.93853759765625 719.7982177734375 713.69921875 723.14910888671875 739.409423828125 741.709228515625 734.80438232421875 737.78460693359375 739.10418701171875 721.33624267578125 712.82122802734375 728.04150390625 737.2137451171875 725.03448486328125 732.07684326171875 744.69659423828125 733.8209228515625 728.8370361328125 735.23614501953125 747.12640380859375 745.36376953125 731.4293212890625 725.702880859375 720.36956787109375 741.61859130859375 748.8516845703125 742.340576171875 749.76531982421875 753.31390380859375 749.799560546875 741.0350341796875 739.1221923828125 729.0660400390625 728.087158203125 728.60443115234375 734.5780029296875 727.20989990234375 740.2607421875 735.51031494140625 742.143310546875 740.44720458984375 738.447021484375 741.2379150390625 742.0250244140625 742.497314453125 745.781005859375 748.5137939453125 749.989013671875 751.47637939453125 756.055908203125 762.63262939453125 771.39202880859375 776.6170654296875 780.19647216796875 776.0830078125 767.39703369140625 767.97979736328125 775.51654052734375 784.29888916015625 787.0858154296875 786.18829345703125 786.2261962890625 789.2830810546875 797.0899658203125 802.29583740234375 799.25567626953125 799.3873291015625 799.4332275390625 809.77069091796875 821.2930908203125 815.986083984375 813.47601318359375 800.629150390625 798.98638916015625 803.130126953125 805.34423828125 816.67279052734375 810.03582763671875 825.44952392578125 842.066650390625 853.40704345703125 847.57720947265625 840.075927734375 847.69482421875 860.7054443359375 871.20501708984375 870.388427734375 871.1536865234375 882.27435302734375 893.0704345703125 900.2186279296875 889.7110595703125 879.17498779296875 875.2677001953125 875.1376953125 874.9268798828125 871.5760498046875 872.3660888671875 879.9906005859375 874.63153076171875 880.6181640625 886.98699951171875 878.45770263671875 869.70635986328125 868.9024658203125 867.787841796875 866.87615966796875 867.70404052734375 871.11138916015625 876.80804443359375 882.73443603515625 891.776123046875 891.28070068359375 884.25982666015625 875.84796142578125 866.73565673828125 858.556884765625 858.28778076171875
783.304443359375 770.79754638671875 788.99017333984375 806.72503662109375 827.3204345703125 838.05804443359375 827.357666015625 835.825927734375 828.14764404296875 810.2391357421875 787.73944091796875 765.48651123046875 747.97760009765625 738.92999267578125 756.69134521484375 762.8734130859375 778.8157958984375 796.50372314453125 792.06475830078125 769.28985595703125 761.59228515625 777.3978271484375 760.1634521484375 737.42218017578125 760.3992919921875 770.99774169921875 786.7998046875 788.196044921875 769.00177001953125 756.9638671875 767.77935791015625 765.45733642578125 771.290771484375 772.141357421875 771.91070556640625 756.56939697265625 733.60858154296875 745.62677001953125 768.5008544921875 757.15057373046875 737.2611083984375 753.42266845703125 757.3992919921875 763.55682373046875 754.90863037109375 737.37945556640625 719.7982177734375 723.81683349609375 730.298583984375 735.99932861328125 748.8868408203125 748.41925048828125 742.947998046875 751.41900634765625 739.75665283203125 721.12579345703125 712.82122802734375 731.185546875 741.40057373046875 728.1285400390625 739.09539794921875 752.21026611328125 738.86614990234375 734.29522705078125 738.61676025390625 749.16851806640625 747.71923828125 735.765869140625 729.3673095703125 725.1900634765625 740.10980224609375 751.55633544921875 744.66522216796875 751.84576416015625 753.46881103515625 748.54364013671875 737.4246826171875 739.959716796875 728.536865234375 729.02899169921875 734.7779541015625 737.35552978515625 729.69610595703125 740.71234130859375 739.1712646484375 743.36651611328125 746.54632568359375 744.9981689453125 741.0262451171875 745.0640869140625 748.82232666015625 753.189697265625 757.57818603515625 755.41485595703125 753.9107666015625 758.14727783203125 764.15692138671875 770.63714599609375 774.5673828125 777.96026611328125 780.0838623046875 772.51727294921875 768.9207763671875 773.59674072265625 783.0599365234375 790.5736083984375 791.3592529296875 793.42120361328125 793.852783203125 797.78741455078125 801.7933349609375 804.62188720703125 805.42083740234375 804.33245849609375 805.95281982421875 815.90863037109375 825.66632080078125 817.96649169921875 808.5369873046875 805.11468505859375 807.1773681640625 814.64971923828125 827.98236083984375 816.07623291015625 825.83355712890625 839.529541015625 854.3692626953125 859.00738525390625 848.597412109375 850.01177978515625 859.15765380859375 870.07159423828125 878.07159423828125 886.2596435546875 894.09130859375 901.44525146484375 896.86126708984375 886.90771484375 877.966796875 878.85528564453125 881.99871826171875 882.46356201171875 877.25982666015625 884.49566650390625 890.14056396484375 883.2584228515625 882.3917236328125 881.21136474609375 869.60101318359375 868.783447265625 868.71307373046875 868.52490234375 868.859619140625 869.570068359375 878.8837890625 889.965087890625 892.4447021484375 892.33758544921875 883.7523193359375 881.72271728515625 874.2869873046875 859.7647705078125 858.84490966796875 859.15203857421875
794.718505859375 777.107666015625 790.23095703125 807.0875244140625 827.7052001953125 846.705078125 844.09759521484375 837.203369140625 812.3975830078125 795.22503662109375 779.83514404296875 750.3724365234375 747.10308837890625 751.789794921875 771.4395751953125 784.7020263671875 789.40777587890625 806.96051025390625 794.4652099609375 771.990478515625 773.68829345703125 786.49005126953125 764.4112548828125 747.24139404296875 769.7520751953125 787.9622802734375 799.609619140625 795.39581298828125 772.20416259765625 773.213623046875 778.5279541015625 780.0614013671875 785.7769775390625 781.27642822265625 767.8602294921875 745.78125 742.15252685546875 762.7864990234375 780.2757568359375 765.3409423828125 748.60772705078125 767.0787353515625 773.92974853515625 777.387451171875 760.54681396484375 733.21734619140625 723.6812744140625 727.21429443359375 745.63385009765625 747.63726806640625 762.06365966796875 753.8577880859375 752.5301513671875 758.359619140625 737.834716796875 717.69842529296875 721.98223876953125 742.3291015625 746.1300048828125 731.1156005859375 745.05645751953125 758.521728515625 741.24261474609375 738.50909423828125 749.9482421875 756.08770751953125 747.48822021484375 737.21429443359375 736.2666015625 728.1253662109375 735.35211181640625 754.23138427734375 746.4971923828125 753.64898681640625 752.8978271484375 745.95916748046875 736.80474853515625 729.7664794921875 731.38446044921875 738.9552001953125 736.8345947265625 739.75433349609375 729.72918701171875 741.91265869140625 744.94061279296875 744.29327392578125 749.98046875 751.005615234375 747.90631103515625 745.4835205078125 750.43804931640625 754.7081298828125 760.57879638671875 759.4708251953125 756.87890625 758.49609375 762.428955078125 767.0299072265625 770.5382080078125 772.56231689453125 776.4017333984375 780.19879150390625 777.0506591796875 773.99163818359375 776.80340576171875 780.20782470703125 784.17999267578125 787.41748046875 791.6246337890625 797.27508544921875 801.8377685546875 808.093994140625 808.25421142578125 812.01556396484375 809.571533203125 811.821044921875 823.7557373046875 828.05657958984375 818.64495849609375 805.11468505859375 817.375732421875 829.1285400390625 829.9129638671875 818.42059326171875 831.38690185546875 844.269287109375 850.6142578125 861.63385009765625 860.450927734375 857.5494384765625 856.45965576171875 861.7667236328125 867.80364990234375 877.89117431640625 889.38616943359375 901.6868896484375 891.20916748046875 882.54296875 878.2593994140625 883.39044189453125 892.63531494140625 893.41943359375 886.2220458984375 892.11328125 891.56646728515625 885.478271484375 881.18017578125 876.49212646484375 869.83612060546875 870.99810791015625 874.17523193359375 873.44622802734375 877.08636474609375 875.885009765625 879.04486083984375 886.1922607421875 894.44183349609375 889.33538818359375 874.877685546875 868.61944580078125 866.33294677734375 862.7901611328125 860.001220703125 866.4090576171875
803.96136474609375 785.4722900390625 796.19793701171875 812.42901611328125 831.9464111328125 851.8377685546875 858.29351806640625 832.49127197265625 811.67401123046875 790.8193359375 765.55780029296875 748.44525146484375 759.88092041015625 774.4300537109375 786.16278076171875 804.170166015625 801.89422607421875 815.792724609375 795.62060546875 780.717529296875 789.0865478515625 797.41552734375 774.3004150390625 765.38763427734375 786.79791259765625 801.28558349609375 811.1278076171875 800.239501953125 789.31298828125 790.1009521484375 798.73779296875 794.56036376953125 782.69134521484375 767.22259521484375 756.9384765625 753.4798583984375 768.851806640625 780.00042724609375 786.2635498046875 765.85931396484375 768.61456298828125 782.96954345703125 790.46270751953125 780.47320556640625 760.781494140625 728.45343017578125 735.367919921875 730.8831787109375 748.55426025390625 765.7237548828125 775.09027099609375 763.5955810546875 766.95196533203125 747.71600341796875 729.0579833984375 719.57781982421875 733.60992431640625 752.97802734375 749.9190673828125 737.65380859375 750.404296875 758.8262939453125 742.74462890625 742.8619384765625 755.54791259765625 761.6650390625 749.15814208984375 744.71343994140625 739.62335205078125 730.716796875 738.96295166015625 758.57373046875 748.26751708984375 755.058837890625 750.9119873046875 740.28668212890625 735.619140625 736.07940673828125 740.8404541015625 742.62701416015625 740.7869873046875 741.708251953125 730.7822265625 742.1910400390625 750.31158447265625 746.60614013671875 749.72802734375 753.20709228515625 749.92803955078125 747.72125244140625 751.2091064453125 758.0648193359375 762.4261474609375 763.58685302734375 761.2215576171875 759.39202880859375 761.09735107421875 764.44830322265625 767.76202392578125 770.63494873046875 773.97747802734375 778.59356689453125 777.928466796875 779.63934326171875 779.0604248046875 780.18011474609375 785.2457275390625 790.0577392578125 792.46856689453125 795.700927734375 801.9339599609375 808.31195068359375 817.59222412109375 815.79571533203125 819.07513427734375 813.220947265625 822.41314697265625 831.4300537109375 826.81182861328125 813.20697021484375 812.01580810546875 829.85260009765625 834.179443359375 819.90887451171875 830.36273193359375 841.40087890625 846.8363037109375 854.8046875 863.2403564453125 870.2723388671875 869.1295166015625 868.26885986328125 868.98040771484375 878.26806640625 891.07427978515625 899.7698974609375 886.32379150390625 880.3426513671875 880.65533447265625 888.0809326171875 899.077880859375 900.17919921875 895.81231689453125 890.53271484375 881.370849609375 878.7044677734375 876.81964111328125 873.23773193359375 873.11126708984375 881.2838134765625 884.66632080078125 882.00689697265625 888.52801513671875 885.70123291015625 893.245361328125 892.35162353515625 898.91400146484375 893.5684814453125 882.15216064453125 870.42535400390625 864.44146728515625 861.9573974609375 862.8116455078125 876.30181884765625
812.11273193359375 795.2950439453125 805.14886474609375 821.9697265625 836.906982421875 858.5450439453125 864.40338134765625 845.19952392578125 825.408447265625 796.45880126953125 770.76708984375 751.74957275390625 769.69342041015625 789.317626953125 806.3797607421875 813.6937255859375 824.85406494140625 824.42724609375 803.9730224609375 798.05902099609375 807.50390625 806.57568359375 781.45941162109375 782.7901611328125 802.4833984375 817.92620849609375 824.6226806640625 812.1395263671875 807.68896484375 810.3720703125 803.7545166015625 789.7821044921875 773.3653564453125 762.68841552734375 764.416015625 769.12237548828125 785.86279296875 799.45294189453125 785.49774169921875 768.70166015625 790.22894287109375 802.841796875 792.171875 775.29345703125 751.85723876953125 737.40325927734375 747.5789794921875 745.86993408203125 759.32269287109375 775.47210693359375 785.2684326171875 776.4075927734375 766.81829833984375 745.17510986328125 725.42169189453125 735.442626953125 746.173095703125 762.06182861328125 750.83673095703125 754.6766357421875 764.28021240234375 757.8388671875 748.88031005859375 757.1639404296875 755.34393310546875 766.59320068359375 755.74169921875 753.68896484375 737.29931640625 733.71917724609375 746.882080078125 761.22125244140625 749.939453125 756.2371826171875 746.589111328125 737.40911865234375 738.577392578125 742.1982421875 747.8890380859375 744.9034423828125 745.835205078125 742.74859619140625 732.76702880859375 744.66888427734375 752.98388671875 749.30181884765625 752.021240234375 756.04547119140625 752.85845947265625 751.80712890625 755.2880859375 762.23687744140625 767.2576904296875 766.87811279296875 764.1722412109375 762.93975830078125 764.475341796875 767.1900634765625 770.26708984375 772.33526611328125 776.01226806640625 778.220703125 779.00299072265625 785.6976318359375 787.77630615234375 787.810791015625 785.9268798828125 792.19598388671875 796.63836669921875 797.4864501953125 800.31475830078125 807.85736083984375 819.11102294921875 822.18328857421875 822.7178955078125 818.0684814453125 820.80047607421875 834.66436767578125 834.5338134765625 823.59765625 812.50421142578125 828.5545654296875 842.346923828125 828.98101806640625 825.037109375 830.93231201171875 839.53289794921875 850.45086669921875 863.314697265625 872.09625244140625 876.3272705078125 881.517578125 883.325439453125 892.930908203125 900.798583984375 891.86138916015625 884.74774169921875 887.1551513671875 889.4129638671875 889.4456787109375 897.33575439453125 892.663818359375 887.35162353515625 881.62335205078125 879.1199951171875 878.01068115234375 876.94976806640625 876.934814453125 877.240966796875 884.458984375 893.5443115234375 891.665283203125 894.56866455078125 899.216796875 902.359130859375 900.903564453125 895.3984375 888.52508544921875 881.67340087890625 868.63671875 867.2464599609375 865.34423828125 865.74700927734375 869.8065185546875
819.95025634765625 805.51055908203125 816.44488525390625 832.56048583984375 846.9287109375 865.88616943359375 867.11297607421875 848.6812744140625 825.36029052734375 794.79217529296875 772.95330810546875 756.515625 774.6907958984375 796.84942626953125 817.5208740234375 832.300537109375 839.4771728515625 829.77471923828125 809.12890625 811.71990966796875 822.1259765625 806.87347412109375 783.56134033203125 797.621337890625 814.7237548828125 835.00494384765625 839.89862060546875 830.579345703125 823.09130859375 810.84820556640625 793.40118408203125 779.7783203125 772.228515625 771.5670166015625 783.0504150390625 786.6534423828125 804.54510498046875 805.0018310546875 793.65234375 789.781005859375 812.3160400390625 809.25909423828125 791.71282958984375 772.42523193359375 746.2176513671875 751.48236083984375 750.55633544921875 758.19464111328125 769.8828125 788.9156494140625 783.03668212890625 766.48675537109375 749.1998291015625 732.88507080078125 728.9083251953125 747.2625732421875 758.0274658203125 770.4715576171875 755.911865234375 765.09881591796875 776.143798828125 765.88995361328125 762.488525390625 767.410888671875 764.8756103515625 771.15887451171875 766.81475830078125 749.59747314453125 736.81787109375 739.40045166015625 757.68359375 760.65765380859375 755.5185546875 751.0992431640625 742.633056640625 738.721923828125 745.99603271484375 750.96746826171875 750.91412353515625 747.24334716796875 750.02130126953125 749.624755859375 737.2977294921875 743.56829833984375 753.85198974609375 752.54937744140625 757.10955810546875 760.031982421875 757.90911865234375 757.295654296875 756.603515625 761.25750732421875 769.96014404296875 769.947265625 767.0089111328125 767.999267578125 770.92919921875 769.8265380859375 772.5296630859375 774.0902099609375 777.36029052734375 781.80828857421875 783.27630615234375 786.6990966796875 792.74884033203125 796.95379638671875 795.16119384765625 789.9500732421875 795.78033447265625 801.4075927734375 802.8470458984375 808.26123046875 816.5968017578125 827.6422119140625 829.0638427734375 819.13214111328125 824.6668701171875 834.6318359375 840.5189208984375 828.2510986328125 814.32342529296875 826.4786376953125 839.97802734375 846.230712890625 838.14691162109375 834.847412109375 831.8443603515625 842.14739990234375 854.9571533203125 862.142578125 869.19659423828125 878.74786376953125 884.60406494140625 893.7286376953125 899.177978515625 889.60711669921875 886.8673095703125 892.561279296875 900.2042236328125 905.60125732421875 898.9447021484375 888.238525390625 886.4913330078125 884.253173828125 882.15277099609375 880.05889892578125 882.31195068359375 885.77685546875 881.67889404296875 885.79736328125 898.3214111328125 902.9395751953125 904.61505126953125 901.21124267578125 891.06024169921875 885.7647705078125 881.03411865234375 875.0040283203125 870.0059814453125 868.4991455078125 872.35540771484375 866.60888671875 872.65380859375 876.34027099609375
829.398193359375 815.5517578125 826.80718994140625 845.03363037109375 859.23565673828125 874.81109619140625 870.4017333984375 851.6998291015625 826.29656982421875 786.4237060546875 771.93353271484375 760.0853271484375 779.07940673828125 795.8173828125 815.89898681640625 839.11187744140625 850.09918212890625 835.15435791015625 817.00543212890625 826.97320556640625 827.99176025390625 805.36431884765625 797.28155517578125 810.75897216796875 833.269287109375 849.534423828125 852.49847412109375 837.0462646484375 817.12530517578125 799.2694091796875 789.05743408203125 780.09039306640625 778.6875 788.8272705078125 798.00006103515625 807.63043212890625 822.81585693359375 817.77642822265625 805.421630859375 814.4754638671875 821.31207275390625 802.0032958984375 785.9326171875 766.93804931640625 749.01983642578125 761.75714111328125 760.20794677734375 768.40252685546875 781.3304443359375 796.627197265625 779.16143798828125 759.86163330078125 742.3328857421875 733.124755859375 746.63916015625 757.3424072265625 774.8638916015625 775.3697509765625 760.72430419921875 768.8389892578125 785.3681640625 781.971435546875 778.04205322265625 774.694580078125 773.01898193359375 770.45751953125 756.94415283203125 740.34454345703125 738.23907470703125 754.7198486328125 766.27471923828125 758.4378662109375 760.66912841796875 747.8394775390625 741.163330078125 740.08587646484375 749.9884033203125 754.2861328125 752.159912109375 750.2164306640625 752.522705078125 752.38214111328125 746.56207275390625 741.33929443359375 754.0491943359375 757.157470703125 760.33392333984375 762.71319580078125 761.8682861328125 760.5518798828125 760.7796630859375 762.0634765625 768.55975341796875 773.37261962890625 770.052978515625 769.6363525390625 778.3941650390625 778.0870361328125 774.56890869140625 776.954833984375 777.599609375 782.587890625 790.21417236328125 788.2396240234375 792.08709716796875 796.85968017578125 805.67669677734375 807.954345703125 799.37408447265625 800.8155517578125 800.8155517578125 805.50238037109375 812.95977783203125 825.407470703125 832.30279541015625 824.4251708984375 830.34765625 837.555908203125 845.85626220703125 839.633056640625 828.3580322265625 819.71136474609375 834.2559814453125 852.838134765625 854.418212890625 850.93310546875 843.20623779296875 837.10693359375 840.28204345703125 853.2457275390625 864.70452880859375 872.95855712890625 882.37176513671875 892.39776611328125 896.75103759765625 888.836669921875 888.911376953125 895.9656982421875 904.46893310546875 911.60614013671875 901.092529296875 893.47808837890625 891.88641357421875 887.010986328125 883.573974609375 884.74371337890625 890.337646484375 892.45257568359375 886.2828369140625 891.21600341796875 898.78228759765625 907.42645263671875 900.53546142578125 891.96380615234375 885.49749755859375 880.7279052734375 878.43634033203125 878.7508544921875 872.22357177734375 874.0953369140625 875.69647216796875 870.11981201171875 875.2525634765625 881.38275146484375
842.95867919921875 829.51007080078125 837.746826171875 854.6331787109375 873.7586669921875 886.660400390625 873.712646484375 849.46783447265625 814.94757080078125 783.48809814453125 760.27581787109375 778.504638671875 789.12261962890625 800.2899169921875 817.193359375 840.7779541015625 856.5528564453125 842.76025390625 828.74151611328125 841.01220703125 828.3946533203125 821.15399169921875 810.00762939453125 829.112060546875 847.50225830078125 862.64532470703125 853.7991943359375 834.8203125 814.59600830078125 800.7255859375 806.38946533203125 790.747314453125 803.5103759765625 804.5758056640625 808.7320556640625 831.6234130859375 838.5792236328125 824.8662109375 819.803955078125 828.64788818359375 812.9666748046875 796.87481689453125 781.6220703125 759.53173828125 766.43780517578125 769.18603515625 775.28289794921875 783.0645751953125 798.6451416015625 797.58502197265625 780.44189453125 757.32293701171875 739.0347900390625 746.2296142578125 760.93060302734375 774.49432373046875 782.37841796875 771.1802978515625 774.79559326171875 785.06463623046875 790.015869140625 776.78106689453125 762.112548828125 755.4327392578125 753.428955078125 749.36431884765625 742.85015869140625 740.69012451171875 754.39910888671875 768.5423583984375 766.57440185546875 765.172607421875 754.8021240234375 743.52325439453125 741.28173828125 749.919189453125 753.58648681640625 757.2164306640625 754.39788818359375 753.84197998046875 755.061767578125 755.0499267578125 750.04681396484375 745.39312744140625 758.64581298828125 761.47259521484375 761.4263916015625 764.88433837890625 764.98736572265625 763.27679443359375 765.2337646484375 766.805908203125 767.2923583984375 770.90814208984375 775.853271484375 774.129150390625 776.66497802734375 782.6136474609375 779.08160400390625 779.73223876953125 780.9793701171875 785.686767578125 792.7471923828125 797.065185546875 797.85845947265625 798.73114013671875 804.80035400390625 815.24798583984375 821.17364501953125 814.07568359375 808.282470703125 809.5458984375 812.6552734375 819.346923828125 831.2462158203125 833.39849853515625 829.9832763671875 841.33380126953125 847.645263671875 853.2982177734375 846.074951171875 833.7169189453125 825.7376708984375 846.7764892578125 858.28118896484375 860.27288818359375 856.8486328125 847.65618896484375 840.257568359375 855.03814697265625 867.18017578125 877.9407958984375 887.14642333984375 898.1873779296875 898.35394287109375 891.4656982421875 893.6849365234375 895.89007568359375 904.68902587890625 913.73309326171875 906.05224609375 903.00592041015625 890.825439453125 887.148681640625 886.78143310546875 889.2117919921875 900.140380859375 893.9285888671875 893.68609619140625 903.9295654296875 911.40570068359375 913.06640625 903.4334716796875 899.37384033203125 892.74676513671875 886.8143310546875 889.24578857421875 879.0440673828125 879.865966796875 884.04510498046875 876.70001220703125 870.32080078125 874.51361083984375 878.44879150390625
857.62548828125 842.83013916015625 850.749755859375 869.0345458984375 888.3037109375 889.5865478515625 870.04876708984375 848.1380615234375 818.90576171875 794.180419921875 771.00396728515625 775.52362060546875 793.418701171875 806.714599609375 822.92987060546875 841.08636474609375 863.7249755859375 854.9407958984375 844.5107421875 852.4219970703125 839.5621337890625 829.0283203125 825.75518798828125 841.49365234375 860.14947509765625 869.92816162109375 850.08746337890625 829.19049072265625 810.9189453125 812.798583984375 808.46551513671875 818.41607666015625 828.663330078125 826.36492919921875 827.22296142578125 844.26678466796875 849.643798828125 834.0079345703125 835.51287841796875 824.6951904296875 804.63031005859375 788.74774169921875 772.4027099609375 763.9361572265625 776.75885009765625 779.36334228515625 790.3878173828125 803.32275390625 810.4598388671875 797.5916748046875 780.7142333984375 753.44091796875 753.7193603515625 759.0018310546875 774.6138916015625 789.820068359375 783.42901611328125 782.24041748046875 781.49725341796875 772.58148193359375 770.0079345703125 762.58013916015625 755.4327392578125 755.8594970703125 751.27508544921875 748.08636474609375 749.4061279296875 758.63153076171875 769.424560546875 773.49725341796875 770.520751953125 765.20452880859375 750.4853515625 745.88018798828125 749.4566650390625 757.38092041015625 759.46502685546875 760.580322265625 757.71923828125 758.707763671875 757.85870361328125 758.58660888671875 751.2818603515625 746.8507080078125 760.8067626953125 765.7752685546875 763.98345947265625 766.97125244140625 767.76904296875 766.22314453125 768.95452880859375 771.7425537109375 771.0196533203125 774.1944580078125 779.53448486328125 778.88812255859375 780.2733154296875 782.55889892578125 785.9024658203125 784.1534423828125 784.8795166015625 786.65802001953125 792.69287109375 799.813720703125 808.98394775390625 810.94647216796875 809.0233154296875 817.9732666015625 830.24603271484375 822.54986572265625 816.6365966796875 822.2398681640625 820.01507568359375 816.27886962890625 823.29437255859375 838.03814697265625 832.977783203125 841.19317626953125 849.00390625 856.04730224609375 858.25384521484375 843.63153076171875 828.1376953125 834.26190185546875 848.59893798828125 860.3782958984375 859.7872314453125 843.39068603515625 848.3443603515625 866.6060791015625 877.318115234375 883.55902099609375 890.52911376953125 900.94219970703125 900.25091552734375 895.46435546875 901.69000244140625 901.86553955078125 903.88409423828125 913.579345703125 914.52972412109375 901.04254150390625 891.23345947265625 888.82073974609375 888.70556640625 896.919921875 906.29266357421875 900.49871826171875 901.0994873046875 911.135498046875 921.09320068359375 920.20928955078125 916.07208251953125 910.66015625 905.12255859375 892.99224853515625 893.04278564453125 879.8231201171875 888.22332763671875 880.23638916015625 872.9666748046875 871.6951904296875 876.5469970703125 882.6475830078125
869.95220947265625 857.10577392578125 869.33367919921875 882.52117919921875 900.14593505859375 886.03125 863.21551513671875 838.75042724609375 815.634521484375 800.69390869140625 784.33453369140625 771.4964599609375 787.77044677734375 805.52587890625 824.13665771484375 841.77386474609375 865.19439697265625 868.5181884765625 860.492431640625 863.7716064453125 852.74462890625 833.6156005859375 837.61151123046875 855.13861083984375 872.36700439453125 866.8135986328125 846.79071044921875 826.82574462890625 813.685791015625 822.88043212890625 825.256103515625 838.00042724609375 847.05755615234375 847.9229736328125 849.66455078125 863.30535888671875 863.43963623046875 851.7496337890625 834.5172119140625 812.11968994140625 791.61749267578125 778.07672119140625 766.650390625 783.43365478515625 780.23590087890625 795.90325927734375 806.50543212890625 817.71173095703125 811.37945556640625 795.53558349609375 777.59454345703125 753.44091796875 768.580078125 773.339111328125 783.58807373046875 797.2724609375 795.7479248046875 790.10614013671875 772.4166259765625 764.50421142578125 758.85003662109375 758.85003662109375 757.1270751953125 767.75994873046875 770.83544921875 762.94580078125 767.48638916015625 769.107666015625 779.51617431640625 775.940673828125 773.998291015625 760.65655517578125 750.306396484375 749.67279052734375 758.82269287109375 767.49835205078125 767.6063232421875 764.31597900390625 760.88653564453125 761.7457275390625 761.1505126953125 761.13775634765625 749.65533447265625 751.58404541015625 765.64599609375 768.84417724609375 767.60748291015625 769.59747314453125 770.6900634765625 768.92352294921875 771.6240234375 774.892333984375 774.449951171875 776.71337890625 783.0634765625 788.85980224609375 787.71795654296875 785.96612548828125 789.40106201171875 790.4854736328125 789.3143310546875 792.32489013671875 794.84466552734375 801.34124755859375 813.02655029296875 824.00726318359375 824.56402587890625 819.2734375 829.87872314453125 841.39959716796875 826.24713134765625 825.40582275390625 830.07659912109375 826.4588623046875 821.75604248046875 830.751708984375 842.5050048828125 840.3538818359375 851.47052001953125 858.5816650390625 863.711181640625 849.01971435546875 838.00634765625 838.2431640625 836.80291748046875 853.4527587890625 860.77508544921875 849.02587890625 856.9854736328125 865.09783935546875 876.025146484375 890.2412109375 897.96820068359375 907.32977294921875 907.29400634765625 899.5726318359375 903.8519287109375 912.86962890625 915.4151611328125 919.6519775390625 907.462646484375 896.39874267578125 892.91778564453125 896.802001953125 890.499755859375 903.21722412109375 911.1419677734375 908.882568359375 904.3194580078125 914.00341796875 923.4815673828125 923.621337890625 921.24554443359375 920.19708251953125 910.643798828125 904.38861083984375 898.26324462890625 890.55023193359375 888.565673828125 878.53265380859375 874.03533935546875 874.8885498046875 877.4578857421875 884.54541015625
881.3331298828125 873.465087890625 884.9705810546875 899.36505126953125 905.74591064453125 886.839111328125 862.85638427734375 841.108642578125 821.45794677734375 803.949462890625 788.56011962890625 777.1583251953125 799.70233154296875 809.420654296875 826.1268310546875 844.08642578125 866.34783935546875 881.12939453125 878.92022705078125 874.35760498046875 854.66357421875 845.65673828125 853.1790771484375 871.00567626953125 882.0494384765625 865.54888916015625 846.87841796875 833.83447265625 827.7401123046875 831.19842529296875 840.3997802734375 848.35247802734375 868.52178955078125 874.08673095703125 880.3929443359375 881.6817626953125 869.70428466796875 852.9921875 829.065673828125 801.93255615234375 779.00347900390625 783.99346923828125 787.479736328125 795.83770751953125 795.36016845703125 809.13873291015625 819.85003662109375 826.821533203125 809.44036865234375 793.459716796875 774.76300048828125 761.06201171875 782.2354736328125 790.30804443359375 798.74810791015625 802.273193359375 794.28326416015625 778.9176025390625 768.6103515625 781.89056396484375 776.61187744140625 772.47137451171875 759.212890625 766.11456298828125 780.4163818359375 786.718017578125 780.57720947265625 785.59197998046875 781.51727294921875 781.8165283203125 769.787353515625 758.65667724609375 751.18670654296875 750.34332275390625 765.83160400390625 774.07159423828125 773.93304443359375 765.59857177734375 764.001708984375 765.30426025390625 765.1644287109375 760.358154296875 750.24481201171875 756.37298583984375 770.37225341796875 776.19921875 771.31207275390625 772.1221923828125 773.56396484375 772.5477294921875 774.54925537109375 777.96600341796875 777.9659423828125 778.0426025390625 782.60302734375 791.09979248046875 798.9757080078125 793.95318603515625 791.00408935546875 801.46875 797.8447265625 796.1513671875 806.088134765625 805.91510009765625 815.3447265625 831.52154541015625 838.11358642578125 826.22686767578125 835.498291015625 850.39678955078125 836.332763671875 827.93768310546875 838.93499755859375 837.9840087890625 828.951904296875 828.1829833984375 843.880126953125 844.63232421875 852.5977783203125 864.12213134765625 872.11041259765625 856.89410400390625 844.42303466796875 849.0615234375 850.22845458984375 844.18182373046875 859.916259765625 850.027099609375 854.8668212890625 858.3975830078125 880.169189453125 888.8848876953125 898.2974853515625 908.16937255859375 916.2005615234375 910.463134765625 907.31817626953125 911.2479248046875 923.2724609375 913.5745849609375 901.26080322265625 898.06341552734375 902.653076171875 908.60992431640625 896.9927978515625 897.45513916015625 905.968994140625 915.1383056640625 919.71136474609375 922.21392822265625 926.8485107421875 915.0242919921875 911.51214599609375 913.05035400390625 911.2802734375 911.7772216796875 903.42413330078125 889.59466552734375 884.29010009765625 878.873291015625 875.2562255859375 877.97149658203125 883.8638916015625 889.15606689453125
894.946533203125 890.56805419921875 902.758056640625 912.75140380859375 909.215087890625 886.56085205078125 864.64263916015625 846.27423095703125 828.88726806640625 813.96844482421875 797.542724609375 779.135009765625 795.65283203125 813.9210205078125 831.92791748046875 853.2113037109375 870.22454833984375 891.8212890625 893.42791748046875 879.81475830078125 860.052001953125 865.318359375 874.596923828125 884.22369384765625 882.5181884765625 866.06903076171875 848.55255126953125 834.29693603515625 833.54034423828125 850.8311767578125 845.91229248046875 867.39459228515625 882.95489501953125 890.7852783203125 889.30975341796875 878.96319580078125 859.22216796875 847.417724609375 823.6722412109375 805.883056640625 798.4755859375 788.0589599609375 810.57861328125 813.41961669921875 813.02435302734375 825.4312744140625 834.8109130859375 822.0213623046875 804.86395263671875 785.8671875 766.510498046875 778.34698486328125 791.46710205078125 806.48687744140625 803.46112060546875 794.3504638671875 780.03387451171875 768.6103515625 777.82147216796875 796.04608154296875 793.562744140625 780.0809326171875 767.7318115234375 765.7115478515625 782.3697509765625 793.48931884765625 789.12030029296875 793.13519287109375 789.12066650390625 777.76873779296875 766.36474609375 757.89739990234375 752.38885498046875 754.22393798828125 768.20721435546875 778.52777099609375 780.0843505859375 769.6044921875 767.19708251953125 768.2998046875 767.39227294921875 758.41510009765625 757.7813720703125 759.52862548828125 772.1597900390625 781.30072021484375 777.6357421875 774.83984375 777.04779052734375 776.322265625 778.62847900390625 781.5791015625 784.6405029296875 783.278564453125 785.6484375 795.32464599609375 806.08984375 805.25 795.7415771484375 801.57073974609375 804.987060546875 798.49774169921875 809.808349609375 821.080078125 818.35601806640625 836.766845703125 850.34515380859375 841.99945068359375 845.54376220703125 860.6014404296875 845.2802734375 830.30242919921875 845.26190185546875 843.2657470703125 834.247314453125 830.580078125 840.3226318359375 851.1201171875 853.75885009765625 865.592041015625 878.68133544921875 864.9635009765625 849.66595458984375 856.0618896484375 860.22393798828125 848.99908447265625 851.4091796875 864.8359375 868.04266357421875 857.68927001953125 873.770751953125 893.12744140625 903.65850830078125 913.48248291015625 920.49993896484375 923.291748046875 921.9825439453125 923.0882568359375 925.99847412109375 911.35333251953125 903.9014892578125 909.98638916015625 914.55682373046875 917.96820068359375 899.351318359375 903.076904296875 901.7449951171875 911.1678466796875 921.03326416015625 929.855712890625 928.15740966796875 911.61737060546875 901.24444580078125 899.989013671875 898.58343505859375 899.177734375 897.431884765625 887.82635498046875 882.28424072265625 878.7001953125 877.393310546875 878.77239990234375 887.5028076171875 895.86309814453125
908.6827392578125 912.2044677734375 920.6328125 927.25732421875 909.95965576171875 885.5235595703125 863.53778076171875 843.16192626953125 821.35638427734375 802.92755126953125 788.9605712890625 789.329345703125 803.92657470703125 822.61138916015625 841.06988525390625 861.2352294921875 880.425537109375 903.7216796875 903.3287353515625 887.911376953125 882.06365966796875 888.76983642578125 892.990478515625 895.6798095703125 885.7711181640625 873.3355712890625 859.18780517578125 836.907958984375 835.7906494140625 860.63775634765625 864.5623779296875 877.33270263671875 892.2835693359375 887.51727294921875 876.460205078125 863.99725341796875 843.3426513671875 829.95635986328125 819.287841796875 811.15496826171875 799.16278076171875 802.316162109375 816.1689453125 829.5087890625 827.61773681640625 840.0079345703125 829.253173828125 809.55328369140625 797.64898681640625 779.1932373046875 773.672607421875 790.0421142578125 809.99969482421875 806.5841064453125 794.56719970703125 786.417724609375 775.05059814453125 782.94390869140625 795.47491455078125 800.89031982421875 794.636474609375 787.45916748046875 770.58013916015625 766.69512939453125 785.92437744140625 801.50042724609375 799.42999267578125 790.88079833984375 781.07989501953125 769.17254638671875 762.1107177734375 756.66973876953125 757.1568603515625 764.19598388671875 770.35394287109375 780.581298828125 777.8623046875 774.81024169921875 771.1854248046875 771.4661865234375 770.6678466796875 759.31072998046875 764.2418212890625 760.47216796875 771.46710205078125 779.3917236328125 782.70501708984375 778.340576171875 780.236572265625 780.17034912109375 781.757080078125 785.031005859375 790.30316162109375 790.5108642578125 787.40216064453125 795.818115234375 807.89276123046875 812.16082763671875 804.01409912109375 802.12030029296875 807.597900390625 809.4801025390625 819.0572509765625 831.69354248046875 825.2779541015625 833.9273681640625 853.97894287109375 856.519775390625 853.050537109375 863.89019775390625 845.1201171875 841.57818603515625 854.231201171875 845.9185791015625 841.4498291015625 837.4107666015625 836.86798095703125 852.805419921875 856.3612060546875 863.47686767578125 879.0650634765625 871.22222900390625 855.8946533203125 865.6126708984375 866.1671142578125 859.10552978515625 855.3428955078125 860.3543701171875 872.1741943359375 862.61224365234375 869.66986083984375 887.06695556640625 898.02197265625 904.4935302734375 910.63653564453125 918.56134033203125 926.18115234375 930.75897216796875 926.3353271484375 909.87396240234375 911.55487060546875 921.7362060546875 927.60504150390625 918.79833984375 905.07220458984375 902.591064453125 913.5706787109375 908.3665771484375 918.2047119140625 928.16387939453125 929.344482421875 914.32281494140625 901.97528076171875 897.03564453125 893.0604248046875 889.74298095703125 887.8516845703125 885.535888671875 884.2296142578125 885.11114501953125 879.55694580078125 883.60333251953125 893.35821533203125 895.0968017578125
930.49420166015625 932.12921142578125 938.413818359375 931.74908447265625 909.80450439453125 887.13531494140625 869.690185546875 845.658447265625 820.115478515625 799.08709716796875 793.86224365234375 804.4503173828125 813.31243896484375 833.3770751953125 856.4376220703125 876.6431884765625 893.1016845703125 912.83477783203125 912.0528564453125 899.6016845703125 901.34906005859375 907.7236328125 906.9168701171875 896.492431640625 881.9105224609375 868.0712890625 854.96368408203125 835.7906494140625 840.3653564453125 855.74322509765625 870.51287841796875 881.75018310546875 894.1029052734375 881.2950439453125 868.26190185546875 852.5396728515625 833.5103759765625 817.54351806640625 811.4031982421875 818.93341064453125 821.21112060546875 826.58514404296875 837.88818359375 843.03521728515625 841.1011962890625 839.88580322265625 820.8011474609375 804.1719970703125 787.51690673828125 775.12884521484375 793.47271728515625 810.4384765625 812.11798095703125 802.21356201171875 792.3304443359375 787.2613525390625 775.05059814453125 782.9423828125 803.20477294921875 805.00762939453125 798.68780517578125 788.08856201171875 774.20892333984375 767.902099609375 792.51800537109375 801.37286376953125 789.33001708984375 780.7283935546875 771.87939453125 764.4039306640625 759.32061767578125 757.81768798828125 763.22149658203125 776.0361328125 779.93365478515625 780.82464599609375 777.93475341796875 780.49310302734375 776.36126708984375 774.27227783203125 770.71490478515625 765.94329833984375 766.158447265625 760.47216796875 768.19097900390625 778.819580078125 783.43670654296875 784.065673828125 783.8668212890625 785.1943359375 785.87921142578125 787.59197998046875 793.91876220703125 800.74224853515625 794.253173828125 795.036865234375 803.60784912109375 813.3658447265625 810.921630859375 806.464599609375 810.6341552734375 818.928466796875 816.03839111328125 825.8870849609375 839.80609130859375 844.556640625 850.80059814453125 863.37939453125 860.55047607421875 867.8292236328125 853.33624267578125 845.1802978515625 859.70269775390625 849.58709716796875 851.6212158203125 845.4420166015625 840.8924560546875 846.92132568359375 858.46307373046875 872.41845703125 882.35980224609375 881.55535888671875 861.72003173828125 873.58837890625 875.27069091796875 868.4541015625 868.90728759765625 859.65106201171875 870.13555908203125 869.330810546875 868.5445556640625 882.2113037109375 889.985107421875 895.1148681640625 903.57476806640625 912.44659423828125 917.2784423828125 922.41278076171875 930.42498779296875 915.44891357421875 922.33917236328125 925.56097412109375 932.261962890625 922.16192626953125 912.10723876953125 904.9422607421875 920.20263671875 913.41558837890625 923.65753173828125 930.75067138671875 930.30548095703125 918.337890625 906.42767333984375 898.32464599609375 893.9212646484375 891.58038330078125 888.891845703125 885.8458251953125 888.33502197265625 893.78118896484375 886.8636474609375 894.061279296875 894.29473876953125 888.959716796875
951.59832763671875 952.7861328125 949.4466552734375 928.82623291015625 911.4058837890625 888.9078369140625 866.3323974609375 844.59747314453125 826.45111083984375 804.5240478515625 802.766357421875 818.8096923828125 823.78759765625 834.42169189453125 859.00927734375 882.71185302734375 903.32879638671875 922.82476806640625 923.78216552734375 916.63226318359375 922.29254150390625 922.98248291015625 910.3963623046875 892.8541259765625 875.10308837890625 860.1217041015625 845.9091796875 847.5224609375 854.408203125 861.61224365234375 877.03387451171875 891.08111572265625 897.4681396484375 890.92828369140625 878.2125244140625 864.32049560546875 850.99774169921875 836.4620361328125 824.08697509765625 840.72296142578125 834.057373046875 846.8349609375 853.95904541015625 849.55364990234375 839.0015869140625 826.04010009765625 813.9656982421875 797.22821044921875 780.95513916015625 793.7955322265625 809.74261474609375 815.79052734375 811.3486328125 811.68994140625 809.70892333984375 795.26080322265625 777.899169921875 785.84869384765625 809.775634765625 806.15789794921875 798.28204345703125 789.19384765625 775.84405517578125 771.466552734375 799.18853759765625 796.18170166015625 787.32354736328125 772.93328857421875 763.85491943359375 759.62237548828125 758.7763671875 762.214599609375 769.51788330078125 781.94024658203125 784.00360107421875 785.25189208984375 782.6312255859375 784.0740966796875 778.0897216796875 772.90771484375 767.49481201171875 775.3648681640625 765.33294677734375 765.03631591796875 770.2845458984375 782.930419921875 789.03143310546875 789.4061279296875 787.25299072265625 789.7120361328125 790.93536376953125 790.38775634765625 794.49920654296875 802.79681396484375 802.67242431640625 800.7373046875 804.0404052734375 811.0960693359375 819.22637939453125 815.4266357421875 813.8404541015625 821.66998291015625 832.07318115234375 833.91552734375 833.93463134765625 853.48272705078125 867.07745361328125 869.82720947265625 876.160888671875 872.81292724609375 865.15509033203125 848.36749267578125 864.06341552734375 854.69091796875 858.30950927734375 851.5753173828125 844.94268798828125 847.58447265625 863.8883056640625 876.1622314453125 890.0673828125 884.39276123046875 870.10357666015625 882.701904296875 882.2657470703125 873.5833740234375 885.66229248046875 873.7349853515625 866.81829833984375 878.35931396484375 868.5445556640625 876.23681640625 878.80084228515625 882.8570556640625 892.06109619140625 903.50726318359375 909.17724609375 925.22564697265625 933.7503662109375 924.57196044921875 925.70916748046875 933.64398193359375 936.57977294921875 926.885986328125 911.48333740234375 911.3623046875 924.3828125 924.00897216796875 928.2847900390625 931.53765869140625 922.3726806640625 920.813232421875 905.065185546875 897.82904052734375 894.7178955078125 892.09539794921875 889.73065185546875 888.06787109375 894.646484375 902.53057861328125 896.2706298828125 896.02923583984375 886.98492431640625 884.6536865234375
971.8656005859375 963.7825927734375 944.54913330078125 924.27337646484375 901.9158935546875 879.996337890625 861.19915771484375 843.89373779296875 824.39801025390625 803.43194580078125 804.03790283203125 826.48162841796875 845.8671875 858.065185546875 862.91766357421875 883.95623779296875 907.42291259765625 928.59600830078125 934.9254150390625 933.89581298828125 939.94049072265625 929.06207275390625 911.8477783203125 892.65069580078125 874.0941162109375 860.47735595703125 845.9091796875 855.69000244140625 871.6729736328125 873.681884765625 877.80926513671875 896.1351318359375 906.2745361328125 897.0521240234375 879.79962158203125 865.8116455078125 853.05108642578125 837.7486572265625 832.112548828125 853.04901123046875 858.4039306640625 862.64019775390625 852.004638671875 834.807861328125 816.7681884765625 804.972412109375 799.0128173828125 790.39849853515625 793.91607666015625 812.435791015625 824.1068115234375 823.9891357421875 825.5177001953125 820.804931640625 812.50640869140625 793.23663330078125 777.899169921875 794.17529296875 811.5863037109375 805.13983154296875 795.1275634765625 780.37921142578125 772.55828857421875 777.958740234375 802.89337158203125 803.09149169921875 782.776611328125 769.19671630859375 764.21728515625 760.51318359375 760.4063720703125 779.7225341796875 775.78106689453125 782.7181396484375 790.59234619140625 788.99859619140625 788.843994140625 787.69378662109375 779.003173828125 771.16668701171875 778.4259033203125 786.007568359375 768.49951171875 772.55084228515625 765.489501953125 776.118408203125 788.712646484375 793.32769775390625 792.00689697265625 792.35833740234375 793.9820556640625 794.31121826171875 798.5972900390625 802.4990234375 810.19110107421875 811.2235107421875 808.69561767578125 812.81121826171875 820.67315673828125 825.6900634765625 821.01470947265625 824.12542724609375 832.32806396484375 848.09869384765625 847.43231201171875 851.61297607421875 873.24969482421875 883.65606689453125 883.33428955078125 879.00665283203125 863.19024658203125 860.1229248046875 872.40167236328125 863.280517578125 862.72607421875 858.0174560546875 847.7659912109375 849.8594970703125 865.05413818359375 888.01983642578125 896.730712890625 890.41217041015625 878.10211181640625 889.59112548828125 889.888916015625 880.3448486328125 892.56719970703125 883.97686767578125 870.30523681640625 887.989990234375 882.325439453125 873.98974609375 881.46392822265625 880.89788818359375 886.6387939453125 897.3094482421875 910.5120849609375 926.39593505859375 935.00946044921875 936.8995361328125 939.69415283203125 941.20989990234375 936.8448486328125 918.968505859375 911.3623046875 916.8831787109375 929.56793212890625 932.78466796875 932.94921875 922.48529052734375 912.1104736328125 910.05682373046875 899.65472412109375 896.60015869140625 893.861572265625 892.447998046875 890.16229248046875 890.30999755859375 901.75738525390625 909.95526123046875 903.10919189453125 891.03704833984375 890.73199462890625 887.2327880859375
977.636962890625 956.52093505859375 934.84136962890625 918.195068359375 897.20013427734375 870.80804443359375 850.518310546875 832.263916015625 823.05340576171875 808.43841552734375 811.80419921875 826.6422119140625 848.3997802734375 871.206787109375 884.38262939453125 893.13836669921875 909.5557861328125 931.5186767578125 953.541015625 954.80291748046875 947.4659423828125 927.580322265625 906.332763671875 883.4346923828125 876.21673583984375 863.0477294921875 855.260009765625 868.342529296875 879.420654296875 898.45556640625 894.35601806640625 908.8433837890625 903.9266357421875 884.361083984375 867.8472900390625 855.72198486328125 841.54864501953125 842.446533203125 846.2193603515625 864.80657958984375 873.67169189453125 856.10491943359375 841.06964111328125 819.7421875 805.22833251953125 806.56365966796875 802.26043701171875 802.9664306640625 816.91058349609375 829.043212890625 830.27154541015625 830.51312255859375 828.9217529296875 817.1968994140625 798.7579345703125 788.618408203125 779.529296875 802.0211181640625 806.0076904296875 794.23858642578125 786.88348388671875 778.5726318359375 777.35284423828125 792.37060546875 810.316650390625 800.09271240234375 779.0391845703125 767.5693359375 764.00506591796875 762.55706787109375 780.678955078125 788.4691162109375 783.850341796875 782.82952880859375 793.5345458984375 793.970458984375 793.89019775390625 786.62091064453125 779.9825439453125 776.894775390625 786.9578857421875 793.23138427734375 775.39996337890625 773.06060791015625 775.64422607421875 771.83489990234375 779.19830322265625 791.7425537109375 796.51702880859375 796.736328125 796.99798583984375 797.71551513671875 803.2421875 805.80975341796875 808.00958251953125 816.55950927734375 821.14697265625 817.26580810546875 823.2249755859375 833.802734375 827.8896484375 829.43017578125 833.86260986328125 841.2689208984375 858.591796875 864.538330078125 868.431640625 884.32647705078125 895.40948486328125 886.82977294921875 871.449951171875 865.91925048828125 884.15911865234375 871.98040771484375 866.9915771484375 859.289306640625 851.57330322265625 851.676025390625 865.29583740234375 891.7886962890625 905.76434326171875 899.68865966796875 886.8963623046875 897.7291259765625 895.8336181640625 887.9580078125 897.9088134765625 885.1717529296875 879.18865966796875 895.97509765625 891.18212890625 885.8856201171875 894.6724853515625 893.40606689453125 888.36322021484375 890.873046875 905.45037841796875 917.35662841796875 925.90240478515625 934.001220703125 941.41717529296875 943.35479736328125 931.96734619140625 914.19415283203125 918.2498779296875 926.93994140625 934.386962890625 933.28729248046875 923.15673828125 910.79241943359375 905.58740234375 903.7333984375 898.97064208984375 896.32305908203125 896.884033203125 897.6632080078125 895.2083740234375 891.13543701171875 898.02996826171875 904.4439697265625 894.9024658203125 891.56396484375 895.85162353515625 891.60504150390625
971.87396240234375 951.28338623046875 931.15167236328125 908.7222900390625 884.05657958984375 870.66571044921875 857.0640869140625 836.8330078125 817.97845458984375 820.9327392578125 828.31695556640625 827.86444091796875 846.74224853515625 870.84716796875 891.56329345703125 915.81951904296875 927.2835693359375 941.6207275390625 961.860595703125 960.27099609375 938.5321044921875 916.7740478515625 897.91448974609375 888.06097412109375 879.8765869140625 865.76983642578125 870.56292724609375 882.44927978515625 894.67022705078125 912.65313720703125 918.293701171875 911.54156494140625 894.08709716796875 873.76068115234375 857.82000732421875 853.1820068359375 864.10791015625 853.20416259765625 867.345458984375 877.20526123046875 873.634521484375 851.19464111328125 828.8343505859375 810.39996337890625 825.22161865234375 827.97265625 816.59857177734375 826.8465576171875 828.606201171875 819.3948974609375 820.476806640625 822.4307861328125 809.7518310546875 802.9952392578125 793.5518798828125 789.2052001953125 799.990966796875 811.36907958984375 804.86785888671875 791.07586669921875 783.942138671875 779.87982177734375 795.07415771484375 810.783447265625 800.577392578125 790.18048095703125 776.6036376953125 769.81268310546875 766.32257080078125 769.3648681640625 787.30828857421875 791.68572998046875 788.0755615234375 790.42626953125 793.64996337890625 799.1083984375 793.4205322265625 785.716796875 779.8011474609375 783.9259033203125 795.279296875 797.84259033203125 781.70166015625 773.88507080078125 779.46490478515625 786.23046875 780.53277587890625 785.5584716796875 797.76055908203125 800.14947509765625 800.62030029296875 801.73779296875 808.08099365234375 812.890380859375 809.69488525390625 816.05255126953125 827.63287353515625 825.68170166015625 826.419921875 835.5545654296875 843.0045166015625 839.564208984375 839.00634765625 843.04632568359375 856.91558837890625 878.57342529296875 889.83978271484375 881.9541015625 901.851806640625 896.41827392578125 889.20806884765625 874.6572265625 890.171875 880.55877685546875 871.92498779296875 861.77496337890625 855.25408935546875 855.5096435546875 874.2115478515625 890.4248046875 909.95721435546875 910.666259765625 897.42816162109375 910.55816650390625 900.18157958984375 899.46588134765625 903.20654296875 889.1024169921875 886.68060302734375 903.511474609375 900.65203857421875 891.21051025390625 907.13360595703125 905.69879150390625 901.019287109375 893.39501953125 904.11114501953125 916.115478515625 932.19744873046875 941.466552734375 948.408935546875 936.840576171875 925.13079833984375 921.3778076171875 928.20941162109375 932.22344970703125 935.94488525390625 925.802001953125 914.001220703125 907.93389892578125 909.1123046875 912.69171142578125 905.97021484375 898.13189697265625 899.58917236328125 909.98919677734375 901.239990234375 892.8172607421875 899.832275390625 901.778076171875 893.988037109375 894.47491455078125 899.83990478515625 900.59197998046875
973.2711181640625 953.17547607421875 928.041748046875 907.87274169921875 894.55706787109375 876.585693359375 854.146728515625 831.8345947265625 819.2532958984375 830.88177490234375 843.951171875 835.12744140625 843.073486328125 864.28851318359375 890.6131591796875 916.9503173828125 937.28863525390625 957.22808837890625 969.91375732421875 958.5384521484375 936.17913818359375 919.8331298828125 918.26025390625 906.83087158203125 889.05810546875 876.96722412109375 888.8599853515625 893.64434814453125 913.15594482421875 926.357177734375 926.574462890625 908.85150146484375 889.3248291015625 868.4287109375 871.45367431640625 866.40777587890625 873.83746337890625 870.563720703125 886.2767333984375 887.9014892578125 866.6116943359375 848.10223388671875 831.500244140625 813.2867431640625 838.50201416015625 843.60235595703125 837.08447265625 836.22503662109375 824.2947998046875 827.33367919921875 809.289794921875 810.7100830078125 796.1092529296875 789.89617919921875 789.2052001953125 802.7373046875 817.03753662109375 802.6292724609375 793.19659423828125 788.651123046875 784.265625 799.38018798828125 814.114501953125 804.1102294921875 788.246337890625 783.6175537109375 777.6011962890625 772.21795654296875 768.5732421875 773.28509521484375 788.46282958984375 794.1297607421875 790.265625 798.75299072265625 795.033203125 800.74456787109375 794.5142822265625 786.94921875 788.67510986328125 793.4202880859375 801.1517333984375 795.217529296875 778.2415771484375 780.9266357421875 787.67803955078125 792.35809326171875 798.42169189453125 780.85711669921875 789.25531005859375 802.46881103515625 806.52655029296875 807.34002685546875 809.90386962890625 820.20166015625 815.8936767578125 818.21173095703125 827.8551025390625 841.46221923828125 838.02508544921875 838.7025146484375 855.401123046875 860.914306640625 847.4903564453125 846.1875 857.596923828125 881.1341552734375 901.2725830078125 895.78253173828125 903.84808349609375 908.87493896484375 888.91058349609375 889.107177734375 896.3409423828125 878.74761962890625 876.010009765625 866.2598876953125 859.57843017578125 857.61810302734375 875.4031982421875 896.90582275390625 913.0684814453125 922.32574462890625 911.49957275390625 921.6376953125 910.2777099609375 911.242431640625 906.7454833984375 889.99700927734375 898.02410888671875 912.95440673828125 904.333251953125 903.5927734375 917.2674560546875 921.83349609375 914.7877197265625 898.059326171875 903.77288818359375 919.43255615234375 933.3236083984375 944.93310546875 951.64068603515625 936.62554931640625 924.66650390625 927.0858154296875 936.93853759765625 940.04205322265625 929.1849365234375 917.3717041015625 914.19049072265625 915.89312744140625 920.93548583984375 915.76666259765625 902.92034912109375 899.5897216796875 909.7745361328125 913.5557861328125 897.7652587890625 895.75439453125 901.096435546875 900.2071533203125 899.73223876953125 897.74725341796875 901.94659423828125 911.46917724609375
975.9036865234375 953.45806884765625 928.77679443359375 907.56146240234375 884.78692626953125 877.925537109375 867.785888671875 850.525146484375 823.541748046875 842.56396484375 857.261962890625 848.72882080078125 854.27947998046875 868.3544921875 893.1595458984375 918.46868896484375 935.228515625 958.1630859375 971.55694580078125 962.59783935546875 948.0439453125 932.916015625 920.14361572265625 904.5703125 886.94818115234375 894.54534912109375 904.14508056640625 915.522216796875 926.4052734375 938.85797119140625 930.0025634765625 911.4705810546875 887.74163818359375 868.4287109375 882.6796875 874.95782470703125 886.02349853515625 890.2545166015625 895.72259521484375 880.57025146484375 852.69207763671875 831.59649658203125 824.10650634765625 834.75555419921875 849.41204833984375 852.1590576171875 840.78173828125 830.698486328125 836.20477294921875 830.914794921875 811.34393310546875 799.38275146484375 800.7103271484375 807.16143798828125 806.171630859375 814.1788330078125 809.9246826171875 793.25372314453125 793.1051025390625 790.75762939453125 793.1395263671875 810.44171142578125 811.7640380859375 793.7454833984375 783.79278564453125 782.265625 778.5478515625 772.88177490234375 775.063232421875 780.3055419921875 792.00860595703125 799.3731689453125 795.32568359375 801.5904541015625 799.83538818359375 802.16070556640625 792.11614990234375 789.34747314453125 796.73370361328125 800.40924072265625 795.32940673828125 781.13104248046875 778.862548828125 790.08184814453125 796.2608642578125 791.30181884765625 803.47711181640625 799.0352783203125 793.0980224609375 797.94342041015625 807.8997802734375 812.13116455078125 815.13812255859375 821.37445068359375 824.47088623046875 819.31829833984375 827.27191162109375 842.5042724609375 858.32708740234375 854.7755126953125 859.534912109375 879.142822265625 859.33294677734375 852.005859375 858.97589111328125 878.8056640625 903.0054931640625 909.18951416015625 906.78302001953125 914.009521484375 891.873291015625 905.2445068359375 896.21295166015625 884.07501220703125 883.33251953125 872.38824462890625 862.49786376953125 863.25970458984375 878.87548828125 893.41943359375 913.06787109375 930.33038330078125 925.304931640625 931.94073486328125 918.667724609375 923.9315185546875 907.27301025390625 892.9853515625 906.47552490234375 922.5316162109375 907.73681640625 910.4200439453125 926.43414306640625 932.2509765625 916.5223388671875 899.68243408203125 909.72796630859375 926.72808837890625 935.19549560546875 948.0108642578125 954.64605712890625 943.74761962890625 927.9573974609375 936.14984130859375 943.6561279296875 940.44744873046875 924.34954833984375 924.1845703125 926.682373046875 925.7567138671875 919.9381103515625 910.78125 903.63665771484375 909.74285888671875 919.4241943359375 911.3546142578125 898.0279541015625 898.4805908203125 900.98553466796875 900.805908203125 903.03192138671875 900.3121337890625 907.2418212890625 910.27154541015625
