ncols        155
nrows        31
xllcorner    -24660
yllcorner    45330
cellsize     30.000000000000
NODATA_value  -999
186.293426513671875 186.111785888671875 185.5868682861328125 190.3441314697265625 193.741455078125 200.3852996826171875 187.5639495849609375 169.5109405517578125 151.26800537109375 139.195709228515625 129.7458648681640625 127.464385986328125 132.8047637939453125 130.5556793212890625 133.9067840576171875 125.9104461669921875 110.61171722412109375 117.33255767822265625 110.19677734375 110.50643157958984375 111.6806182861328125 112.1376495361328125 117.6237945556640625 124.2942962646484375 130.304595947265625 130.5432891845703125 129.7709197998046875 130.722869873046875 140.5787506103515625 145.6605377197265625 148.2827301025390625 152.0419464111328125 156.0833587646484375 156.4066314697265625 154.5940093994140625 156.11614990234375 169.24310302734375 184.22235107421875 202.402862548828125 214.6496429443359375 220.1794891357421875 219.751068115234375 212.15863037109375 204.1168060302734375 200.8405914306640625 202.1688690185546875 206.2841949462890625 216.1400604248046875 225.3010711669921875 233.5115966796875 246.029144287109375 256.3983154296875 259.1072998046875 264.03143310546875 267.481781005859375 269.70635986328125 280.26397705078125 292.457122802734375 306.782989501953125 317.288543701171875 327.12457275390625 341.238067626953125 353.844024658203125 367.4559326171875 370.14019775390625 375.323394775390625 385.60357666015625 388.2451171875 397.48443603515625 406.52423095703125 417.84814453125 412.035369873046875 403.5382080078125 392.070648193359375 381.15087890625 369.632568359375 364.19989013671875 358.8896484375 354.549468994140625 358.115325927734375 353.083404541015625 351.895477294921875 342.229278564453125 344.674407958984375 337.37579345703125 318.163299560546875 309.73773193359375 304.0716552734375 299.477569580078125 299.43438720703125 297.484588623046875 297.74737548828125 312.229461669921875 302.450958251953125 286.90802001953125 276.78814697265625 280.91937255859375 288.9898681640625 298.8394775390625 311.751800537109375 317.30657958984375 304.678192138671875 297.354095458984375 292.98321533203125 281.249969482421875 267.181182861328125 247.1132354736328125 228.6164398193359375 217.8580780029296875 222.0404205322265625 231.233001708984375 246.384613037109375 259.64312744140625 271.053497314453125 274.484649658203125 274.6275634765625 289.8590087890625 291.610565185546875 282.78814697265625 273.648468017578125 269.00677490234375 264.205841064453125 254.9310150146484375 239.4214630126953125 227.8959197998046875 213.9288482666015625 200.2099151611328125 192.5122833251953125 189.2574310302734375 189.2657470703125 190.3474578857421875 195.676300048828125 200.9408721923828125 203.473541259765625 208.7098236083984375 218.555084228515625 226.982513427734375 230.0140380859375 224.682708740234375 237.9653472900390625 238.269134521484375 233.9252166748046875 235.0817108154296875 239.5310211181640625 253.106414794921875 265.556182861328125 273.0537109375 285.147247314453125 299.90216064453125 317.02252197265625 336.85919189453125 349.591949462890625 350.959259033203125 366.2978515625 385.634307861328125
190.7985382080078125 193.38372802734375 194.814910888671875 197.9127197265625 203.03253173828125 196.5675506591796875 178.680572509765625 162.6100921630859375 149.831817626953125 143.3644866943359375 135.958709716796875 137.044891357421875 148.253936767578125 149.0468292236328125 146.5959320068359375 130.906951904296875 116.41651153564453125 130.60491943359375 128.2127532958984375 122.41516876220703125 117.526824951171875 114.81452178955078125 114.15999603271484375 116.41765594482421875 120.48390960693359375 121.5626678466796875 122.973663330078125 125.8236846923828125 128.5447235107421875 131.1890411376953125 135.8275604248046875 140.6757049560546875 141.4162750244140625 144.4948577880859375 147.622772216796875 160.4321746826171875 175.253875732421875 189.955413818359375 201.888702392578125 207.353515625 204.5865478515625 199.7503509521484375 192.4586029052734375 189.410430908203125 191.5983123779296875 197.9137115478515625 208.1947784423828125 219.8585968017578125 228.8354034423828125 237.3924102783203125 245.4259185791015625 250.487701416015625 251.1974639892578125 256.19757080078125 266.7996826171875 277.55938720703125 282.75201416015625 288.01763916015625 297.625 309.044281005859375 324.854248046875 332.026947021484375 340.531280517578125 350.444732666015625 354.284332275390625 364.128387451171875 367.417449951171875 376.534912109375 387.13946533203125 394.335845947265625 404.84405517578125 415.0245361328125 416.105560302734375 398.712646484375 384.85162353515625 375.297393798828125 369.243438720703125 365.642486572265625 365.62554931640625 368.541473388671875 363.937225341796875 359.590667724609375 353.321868896484375 343.505523681640625 328.6497802734375 317.727325439453125 312.2481689453125 308.181121826171875 307.847198486328125 304.7298583984375 299.0330810546875 299.872467041015625 313.01287841796875 299.219207763671875 285.2032470703125 281.135284423828125 285.423919677734375 290.44940185546875 305.8046875 312.908599853515625 310.71905517578125 291.384368896484375 280.138763427734375 279.702362060546875 275.51092529296875 265.262451171875 250.351226806640625 230.642791748046875 219.062744140625 227.2346038818359375 235.0696258544921875 238.700439453125 252.5388031005859375 267.539031982421875 274.767425537109375 281.552734375 290.10595703125 291.653289794921875 287.537841796875 282.1019287109375 275.76861572265625 265.55914306640625 255.5477294921875 239.2822113037109375 228.217529296875 216.5203857421875 202.7327880859375 192.732330322265625 192.092193603515625 189.5547027587890625 192.2374420166015625 194.4616851806640625 196.8661346435546875 199.3354949951171875 204.0251007080078125 209.0576324462890625 216.2065277099609375 217.0345001220703125 219.419189453125 226.041717529296875 228.8764495849609375 227.0720672607421875 234.68829345703125 245.2982330322265625 256.585906982421875 269.571807861328125 283.268402099609375 294.796905517578125 308.5672607421875 320.282073974609375 338.4365234375 359.21771240234375 365.847198486328125 372.914398193359375 382.658721923828125
180.4771881103515625 180.570587158203125 175.19195556640625 184.03057861328125 194.5680694580078125 194.3229217529296875 179.3430328369140625 165.086395263671875 156.8888397216796875 147.766815185546875 147.443206787109375 150.6160125732421875 163.7035980224609375 162.5302276611328125 151.9080657958984375 130.824951171875 128.7108001708984375 140.438079833984375 144.51904296875 136.0158233642578125 122.7829742431640625 118.15666961669921875 116.99143218994140625 117.55323028564453125 117.97019195556640625 120.33138275146484375 122.71964263916015625 124.12076568603515625 126.3415985107421875 128.89471435546875 130.0060882568359375 133.3582763671875 137.9067535400390625 145.525238037109375 158.03399658203125 168.8823394775390625 179.479583740234375 191.19775390625 196.23486328125 192.91717529296875 184.7747344970703125 179.8400421142578125 177.950286865234375 183.542694091796875 189.9681396484375 200.4075469970703125 215.38323974609375 223.7646026611328125 230.01910400390625 231.8020172119140625 232.1482391357421875 240.205108642578125 253.5824432373046875 265.081695556640625 274.543304443359375 284.586517333984375 293.035736083984375 299.40802001953125 306.96356201171875 316.8251953125 320.3350830078125 322.886962890625 328.033843994140625 334.38446044921875 349.533966064453125 355.390350341796875 358.50103759765625 367.38543701171875 371.166107177734375 379.593719482421875 388.74346923828125 401.851348876953125 418.49176025390625 408.985198974609375 392.8311767578125 384.164337158203125 380.560821533203125 374.4722900390625 373.41595458984375 368.3907470703125 358.801177978515625 350.336090087890625 342.13543701171875 333.407379150390625 325.751251220703125 319.83807373046875 315.973663330078125 314.968902587890625 313.79052734375 306.244903564453125 300.335601806640625 309.00140380859375 314.79779052734375 302.6151123046875 288.859100341796875 285.052154541015625 290.55780029296875 298.04052734375 310.96014404296875 311.960784912109375 298.120635986328125 278.044219970703125 265.04632568359375 262.84185791015625 260.031097412109375 253.603973388671875 241.7457275390625 229.38201904296875 221.9739532470703125 229.08892822265625 246.7187652587890625 252.330047607421875 252.856842041015625 259.99298095703125 271.580230712890625 283.322235107421875 289.7130126953125 288.67962646484375 276.3983154296875 268.574066162109375 267.929718017578125 262.6712646484375 252.1148681640625 237.3027801513671875 225.7717437744140625 212.639892578125 201.987762451171875 200.08380126953125 198.2783966064453125 189.5547027587890625 191.84552001953125 195.04052734375 198.513916015625 202.242095947265625 204.5139617919921875 206.077911376953125 209.27313232421875 212.3701629638671875 215.252349853515625 218.2915496826171875 220.410003662109375 228.48345947265625 235.563385009765625 242.96551513671875 250.62603759765625 263.523468017578125 281.440948486328125 296.1148681640625 307.392913818359375 317.6695556640625 331.062896728515625 350.9625244140625 363.10650634765625 366.857757568359375 371.266387939453125
171.1680450439453125 164.3924102783203125 154.7199554443359375 167.21734619140625 181.6740875244140625 191.1560211181640625 183.292572021484375 173.074737548828125 163.0592498779296875 156.353912353515625 161.19061279296875 168.2994842529296875 177.747039794921875 169.9908599853515625 151.54278564453125 130.747314453125 137.9122772216796875 149.2634124755859375 153.1331024169921875 144.1201171875 131.2458953857421875 119.87656402587890625 121.1369781494140625 122.08283233642578125 121.71014404296875 125.17015838623046875 127.94930267333984375 128.8244781494140625 127.4745025634765625 128.875579833984375 130.17279052734375 136.9796905517578125 144.62835693359375 155.144378662109375 163.7069244384765625 170.1160888671875 176.2823638916015625 182.57806396484375 180.657745361328125 171.655975341796875 167.7309417724609375 171.798309326171875 183.89349365234375 193.2197723388671875 197.51495361328125 205.78790283203125 216.9429168701171875 220.4338226318359375 221.1324005126953125 225.9106597900390625 232.623504638671875 243.1778411865234375 257.90899658203125 266.470458984375 272.4459228515625 285.64630126953125 295.54620361328125 303.464508056640625 310.299346923828125 311.884765625 311.6907958984375 314.748687744140625 319.85418701171875 330.055145263671875 341.1378173828125 348.1756591796875 353.545928955078125 358.387908935546875 359.84393310546875 369.154510498046875 380.6116943359375 388.818695068359375 401.95513916015625 420.9775390625 406.540802001953125 395.578277587890625 390.11767578125 379.556884765625 368.973968505859375 358.865264892578125 353.0350341796875 345.5963134765625 340.336029052734375 336.60577392578125 330.06976318359375 323.973480224609375 321.06207275390625 321.85137939453125 317.804901123046875 310.964019775390625 309.11407470703125 317.828094482421875 320.61785888671875 304.62628173828125 288.611968994140625 289.74359130859375 296.2154541015625 308.20635986328125 315.170623779296875 311.709136962890625 290.927520751953125 274.35699462890625 259.0377197265625 246.0501861572265625 241.6531982421875 234.32958984375 229.1460418701171875 224.9508514404296875 228.0307464599609375 240.185943603515625 246.6300048828125 264.085601806640625 271.777374267578125 275.39459228515625 278.29229736328125 282.539764404296875 282.267608642578125 277.155914306640625 264.067535400390625 250.765167236328125 254.19805908203125 253.399688720703125 243.481109619140625 232.2354278564453125 222.5674591064453125 207.823974609375 200.08380126953125 206.55047607421875 205.6493377685546875 190.37890625 190.977783203125 194.5114898681640625 198.0005035400390625 202.952545166015625 208.6239013671875 211.248046875 213.326568603515625 216.6401214599609375 218.7755889892578125 219.186981201171875 225.77716064453125 235.55078125 237.9841461181640625 244.7178802490234375 257.11810302734375 266.51971435546875 276.15692138671875 285.326812744140625 295.09771728515625 309.932708740234375 323.721527099609375 336.920562744140625 347.444000244140625 349.1533203125 350.978515625
156.041290283203125 144.62835693359375 138.73779296875 156.6845855712890625 171.8529052734375 183.197113037109375 181.3827667236328125 182.5881805419921875 172.44158935546875 169.8979644775390625 175.545745849609375 181.8383941650390625 182.198486328125 169.123779296875 150.30023193359375 134.6634979248046875 147.5137939453125 157.2508087158203125 159.7701416015625 150.4247283935546875 137.902313232421875 125.20849609375 134.0589141845703125 131.5586090087890625 127.01187896728515625 133.52215576171875 136.8572845458984375 138.808990478515625 137.1285400390625 133.917266845703125 133.7866668701171875 136.106048583984375 138.8746185302734375 148.15411376953125 154.0607147216796875 161.0737152099609375 169.159820556640625 163.794219970703125 161.93609619140625 160.19384765625 162.7768402099609375 183.5260772705078125 196.7414703369140625 204.297149658203125 210.998382568359375 211.6237335205078125 212.576141357421875 216.8336029052734375 224.9844818115234375 232.484405517578125 239.1589508056640625 251.2385711669921875 254.280303955078125 258.00103759765625 268.70611572265625 280.304931640625 288.000701904296875 294.361724853515625 302.20550537109375 301.543243408203125 298.4488525390625 305.42913818359375 318.616790771484375 325.32659912109375 329.368682861328125 335.795562744140625 340.994598388671875 350.184722900390625 353.94610595703125 358.24432373046875 369.405609130859375 384.735931396484375 398.32830810546875 412.823577880859375 418.257659912109375 406.08489990234375 390.3822021484375 378.193389892578125 369.43914794921875 363.90814208984375 359.70001220703125 350.152557373046875 346.724029541015625 343.774871826171875 336.38275146484375 328.506744384765625 329.75018310546875 327.461090087890625 328.232421875 323.8525390625 324.378753662109375 326.372344970703125 323.861358642578125 306.424285888671875 291.823699951171875 295.323760986328125 301.8597412109375 309.28314208984375 320.90716552734375 315.004913330078125 301.1300048828125 286.649993896484375 269.672027587890625 254.8619232177734375 253.0440521240234375 250.9573822021484375 240.727020263671875 227.080963134765625 235.5070037841796875 251.394134521484375 250.3591156005859375 263.814727783203125 280.433837890625 286.436126708984375 284.5421142578125 273.601776123046875 263.346160888671875 266.229400634765625 255.88360595703125 239.987457275390625 237.6427764892578125 240.77923583984375 233.2911376953125 225.3086090087890625 215.927398681640625 205.28662109375 200.08380126953125 214.7956390380859375 212.419219970703125 193.7877655029296875 190.37890625 194.9371795654296875 199.302764892578125 204.5299072265625 210.3977508544921875 216.0932464599609375 222.1790008544921875 226.117340087890625 230.8214263916015625 233.4404144287109375 240.161376953125 246.9441070556640625 251.9229736328125 249.8889312744140625 250.565643310546875 259.170440673828125 268.13885498046875 280.695892333984375 293.292083740234375 304.541290283203125 316.19757080078125 325.149810791015625 333.8763427734375 336.938812255859375 337.624053955078125
131.4660186767578125 125.83977508544921875 140.1760101318359375 155.938873291015625 167.400360107421875 178.6396942138671875 186.0767059326171875 188.9577789306640625 185.9535064697265625 185.500640869140625 188.39593505859375 188.1406707763671875 181.4469757080078125 163.6587371826171875 147.5601043701171875 145.467498779296875 156.377410888671875 163.8660736083984375 163.6667633056640625 156.2627410888671875 144.136810302734375 131.2382659912109375 144.1054840087890625 141.2469329833984375 133.5980682373046875 146.0943145751953125 146.84613037109375 148.89324951171875 152.36175537109375 152.0355224609375 144.647491455078125 137.419036865234375 138.0760345458984375 142.19268798828125 146.41192626953125 149.443603515625 153.5579071044921875 155.584136962890625 160.003570556640625 160.003570556640625 160.003570556640625 182.6293182373046875 195.3587799072265625 200.722137451171875 196.4343414306640625 197.6346282958984375 208.89923095703125 215.647308349609375 220.6818695068359375 231.23248291015625 233.7840728759765625 240.0927276611328125 247.9512786865234375 255.068084716796875 263.783966064453125 273.6195068359375 284.540802001953125 279.464111328125 284.337677001953125 286.300933837890625 287.775909423828125 301.860107421875 314.9468994140625 319.71942138671875 321.8907470703125 326.785614013671875 332.110931396484375 339.75921630859375 345.003875732421875 355.4483642578125 368.390411376953125 379.1500244140625 390.564849853515625 401.235626220703125 408.820220947265625 410.7294921875 394.046844482421875 384.136505126953125 375.923858642578125 369.30426025390625 364.51800537109375 364.24432373046875 358.14306640625 348.65704345703125 340.00811767578125 334.493560791015625 332.631622314453125 332.029754638671875 333.531951904296875 333.9122314453125 335.759552001953125 332.62603759765625 321.853759765625 306.86181640625 297.875244140625 300.41876220703125 306.62359619140625 318.3848876953125 328.225830078125 319.079681396484375 309.53350830078125 290.39111328125 280.058013916015625 278.587432861328125 273.558258056640625 264.031524658203125 245.349945068359375 228.6839599609375 243.2789306640625 259.0914306640625 267.389251708984375 267.55548095703125 283.15203857421875 290.6697998046875 284.67584228515625 267.197845458984375 249.2171630859375 252.5002593994140625 245.891143798828125 231.185333251953125 221.9249420166015625 221.5486907958984375 218.842987060546875 215.0300750732421875 209.009674072265625 202.696258544921875 201.8687286376953125 222.436981201171875 221.929443359375 199.91156005859375 191.0760498046875 193.7610015869140625 197.7109832763671875 201.5012664794921875 207.4076690673828125 212.2127227783203125 215.1262969970703125 218.2679290771484375 226.27130126953125 234.7295379638671875 238.1096343994140625 241.693450927734375 252.638458251953125 264.215057373046875 270.610626220703125 273.1766357421875 279.756011962890625 286.77642822265625 291.87664794921875 297.77374267578125 309.653045654296875 318.414031982421875 325.859222412109375 330.07330322265625 330.627044677734375
115.7378997802734375 122.32653045654296875 136.3083343505859375 146.128448486328125 155.24285888671875 167.9610748291015625 183.20660400390625 191.894134521484375 194.12738037109375 194.7332305908203125 195.0534210205078125 187.541534423828125 174.17596435546875 160.53985595703125 155.9520111083984375 162.5947723388671875 166.6480255126953125 172.2157135009765625 168.371978759765625 161.5593719482421875 148.4283447265625 137.347198486328125 153.780792236328125 153.3277435302734375 137.3681488037109375 154.1630859375 160.6138763427734375 164.58392333984375 170.15203857421875 169.5192413330078125 160.474273681640625 144.040985107421875 138.29730224609375 140.3045654296875 143.8562469482421875 147.8484344482421875 153.6200714111328125 160.104705810546875 168.6926116943359375 164.5672760009765625 160.003570556640625 167.08001708984375 180.337738037109375 184.571319580078125 186.2414703369140625 188.600921630859375 197.8479766845703125 206.6578521728515625 211.58782958984375 219.8804779052734375 229.3331451416015625 239.804290771484375 246.3228759765625 255.29852294921875 266.6583251953125 275.774688720703125 279.754302978515625 271.48382568359375 271.67205810546875 277.4755859375 286.009613037109375 296.96142578125 306.807586669921875 311.860565185546875 316.429962158203125 320.273162841796875 325.715423583984375 335.799224853515625 345.509063720703125 355.580780029296875 363.157745361328125 369.966064453125 378.38043212890625 386.78289794921875 394.609375 406.01641845703125 402.118255615234375 388.072052001953125 378.219696044921875 373.482635498046875 374.24609375 370.524017333984375 361.427276611328125 352.08111572265625 344.28399658203125 338.3218994140625 335.395416259765625 335.45587158203125 337.916778564453125 338.400054931640625 341.692718505859375 334.305023193359375 319.52117919921875 306.840118408203125 304.7025146484375 304.048980712890625 309.5013427734375 322.923614501953125 334.67315673828125 325.18609619140625 309.39483642578125 295.487396240234375 292.810791015625 291.28662109375 280.06085205078125 266.2320556640625 244.4419097900390625 230.8905792236328125 247.5962677001953125 263.577484130859375 278.837066650390625 279.63421630859375 289.11029052734375 289.4744873046875 279.977691650390625 264.238006591796875 246.0465087890625 235.9597015380859375 229.7999267578125 215.3137664794921875 209.646270751953125 209.593475341796875 209.0679931640625 206.028076171875 203.5794219970703125 201.8687286376953125 209.0012664794921875 228.1400146484375 231.44439697265625 211.435638427734375 196.002960205078125 191.349884033203125 194.6277008056640625 197.954681396484375 200.337921142578125 202.78607177734375 204.5520782470703125 209.1237640380859375 217.48944091796875 223.7491607666015625 224.4052734375 235.852996826171875 247.778167724609375 260.8134765625 269.29583740234375 277.48907470703125 281.3150634765625 278.4525146484375 284.4154052734375 287.355316162109375 298.643768310546875 311.88079833984375 316.57476806640625 317.01202392578125 318.993682861328125
124.51815032958984375 131.013458251953125 136.8921051025390625 143.8787689208984375 152.8179779052734375 165.6853790283203125 178.2377777099609375 187.4419403076171875 194.53411865234375 200.655242919921875 198.5042877197265625 184.0662689208984375 169.763336181640625 176.603240966796875 168.4172210693359375 176.9955902099609375 180.1003570556640625 181.8713226318359375 174.6848907470703125 163.841827392578125 148.290740966796875 145.927764892578125 163.4875335693359375 160.57147216796875 147.46746826171875 152.373992919921875 166.418487548828125 172.9755859375 176.1263580322265625 178.858123779296875 174.455169677734375 164.2175750732421875 160.3576507568359375 155.9614105224609375 161.85205078125 172.81170654296875 173.8011932373046875 177.1426849365234375 186.4407958984375 179.40252685546875 167.107452392578125 166.647674560546875 169.8069000244140625 177.1835174560546875 184.5144195556640625 188.8249664306640625 189.581451416015625 195.933929443359375 203.9825897216796875 219.8965606689453125 232.277099609375 238.022247314453125 243.351104736328125 252.8825531005859375 259.799041748046875 268.417388916015625 269.48492431640625 262.32086181640625 269.061187744140625 276.00750732421875 284.20025634765625 288.08282470703125 292.34228515625 301.6240234375 307.2401123046875 312.396759033203125 325.07965087890625 334.1978759765625 342.663421630859375 350.786102294921875 356.62371826171875 364.4622802734375 371.560333251953125 379.306854248046875 388.99053955078125 397.433074951171875 405.594696044921875 392.3668212890625 383.293121337890625 381.56622314453125 380.81170654296875 371.324554443359375 366.036529541015625 363.372161865234375 355.2398681640625 342.31524658203125 338.430084228515625 338.93792724609375 342.083160400390625 343.915863037109375 342.61517333984375 331.336883544921875 318.085784912109375 308.15496826171875 314.724334716796875 312.79132080078125 309.331939697265625 321.454833984375 340.919036865234375 335.737548828125 320.8731689453125 306.386138916015625 300.440460205078125 293.35528564453125 282.212188720703125 265.156280517578125 248.451080322265625 237.392181396484375 247.7132568359375 263.020782470703125 282.218963623046875 290.996490478515625 293.071319580078125 288.182403564453125 271.577178955078125 255.609527587890625 244.7598876953125 230.067413330078125 222.312469482421875 231.368194580078125 233.2018585205078125 224.8613128662109375 218.12860107421875 214.2548980712890625 206.431396484375 201.8687286376953125 217.561798095703125 234.989044189453125 242.1190032958984375 224.5592041015625 202.103515625 195.0416717529296875 192.354461669921875 195.1819915771484375 196.859039306640625 197.8206634521484375 198.38677978515625 200.1458892822265625 207.179840087890625 211.1314239501953125 221.7164306640625 234.3809814453125 244.7006378173828125 253.2503204345703125 260.01751708984375 271.274871826171875 270.9915771484375 266.396820068359375 272.82891845703125 281.34381103515625 294.880889892578125 303.932647705078125 305.789093017578125 306.715972900390625 310.272003173828125
130.64581298828125 138.7918701171875 144.279693603515625 149.8246612548828125 154.6013031005859375 160.5668182373046875 162.6765289306640625 170.8158111572265625 181.282806396484375 193.0926513671875 202.5824432373046875 188.6462860107421875 188.5144195556640625 191.3131866455078125 184.321685791015625 186.2476806640625 193.6612548828125 193.00030517578125 184.02581787109375 165.336181640625 148.492034912109375 156.563018798828125 174.5042572021484375 171.88104248046875 155.6966400146484375 147.94207763671875 164.2781219482421875 173.198760986328125 179.335296630859375 187.7643280029296875 190.1620941162109375 187.284881591796875 194.149200439453125 193.508544921875 189.1546173095703125 194.2139434814453125 196.346893310546875 195.590240478515625 209.9267120361328125 210.1530914306640625 188.197052001953125 177.1798095703125 177.2236785888671875 176.2597198486328125 187.1349334716796875 203.58099365234375 208.0016632080078125 199.6164398193359375 197.241668701171875 203.4831085205078125 218.0472259521484375 229.364166259765625 231.6769561767578125 237.3031158447265625 246.61920166015625 249.92767333984375 256.75457763671875 259.4029541015625 265.17584228515625 270.980316162109375 275.262969970703125 280.973846435546875 285.494354248046875 291.705596923828125 300.031707763671875 308.6258544921875 322.18511962890625 330.718109130859375 337.76019287109375 345.256744384765625 352.517181396484375 358.303741455078125 362.596221923828125 367.077789306640625 377.082275390625 391.056549072265625 400.84686279296875 397.62786865234375 392.690673828125 392.8472900390625 382.95721435546875 379.9755859375 373.192474365234375 372.1334228515625 363.607666015625 348.99737548828125 344.69158935546875 344.802398681640625 347.07861328125 348.663970947265625 339.402740478515625 327.215118408203125 313.018585205078125 320.29779052734375 325.557281494140625 323.360443115234375 314.3565673828125 326.712158203125 343.220184326171875 346.396026611328125 332.54296875 322.497802734375 314.279937744140625 295.3428955078125 282.957061767578125 270.860687255859375 260.958251953125 241.4297637939453125 245.23236083984375 260.13006591796875 279.571441650390625 291.264495849609375 293.9969482421875 287.969757080078125 272.1446533203125 256.46612548828125 247.671722412109375 242.222686767578125 235.0690765380859375 242.2504730224609375 243.4033050537109375 240.8936920166015625 231.289093017578125 219.86737060546875 207.3454742431640625 205.2388458251953125 220.5430755615234375 238.340301513671875 248.9623870849609375 236.865753173828125 216.6947174072265625 201.0216217041015625 195.408538818359375 192.59820556640625 193.7389678955078125 194.9886627197265625 196.0376129150390625 198.0100555419921875 201.198974609375 210.7639923095703125 222.89459228515625 232.6953277587890625 239.4352874755859375 244.7709808349609375 251.4775238037109375 265.270599365234375 262.80810546875 258.218170166015625 260.71197509765625 276.06317138671875 289.067535400390625 287.623748779296875 291.3048095703125 298.491455078125 301.569366455078125
129.5723114013671875 131.1293792724609375 137.1463165283203125 137.9703521728515625 139.3778228759765625 141.8928680419921875 142.59442138671875 152.90380859375 161.955718994140625 181.46002197265625 200.8392333984375 201.87139892578125 198.8817138671875 199.472564697265625 192.1859588623046875 194.016510009765625 204.1049041748046875 203.6717987060546875 190.1490325927734375 172.2945709228515625 149.701171875 164.311279296875 184.1889190673828125 187.0817718505859375 170.660125732421875 155.87359619140625 158.540374755859375 171.6927642822265625 179.5195770263671875 190.5019683837890625 201.4659881591796875 206.40289306640625 210.565582275390625 212.246917724609375 206.1390838623046875 213.1524658203125 214.6033172607421875 209.8598480224609375 222.0343170166015625 227.0838165283203125 210.3319549560546875 195.7943267822265625 194.004791259765625 185.3577880859375 182.811370849609375 205.464752197265625 216.8066864013671875 219.8538360595703125 215.320587158203125 212.787933349609375 214.3419036865234375 215.8113861083984375 218.8098907470703125 225.5814666748046875 236.08990478515625 242.721588134765625 251.572235107421875 256.597320556640625 261.219329833984375 262.891082763671875 279.948760986328125 289.897796630859375 292.585235595703125 296.58306884765625 301.512847900390625 307.321319580078125 317.82733154296875 325.6092529296875 328.4700927734375 331.775787353515625 342.783050537109375 344.492706298828125 350.268585205078125 354.812225341796875 365.202545166015625 383.568359375 395.956268310546875 403.5333251953125 402.2723388671875 400.777191162109375 395.116790771484375 386.628692626953125 382.864715576171875 376.806121826171875 367.167205810546875 356.166412353515625 353.00543212890625 352.191253662109375 352.569122314453125 350.56195068359375 337.91375732421875 325.586090087890625 318.759185791015625 332.18975830078125 335.385986328125 331.84344482421875 319.20965576171875 328.064361572265625 345.251953125 343.97601318359375 330.102691650390625 320.908599853515625 310.04852294921875 296.3746337890625 289.392608642578125 282.159820556640625 264.581146240234375 246.4384002685546875 241.4297637939453125 257.5146484375 274.547027587890625 287.678375244140625 295.15228271484375 283.977996826171875 273.61065673828125 264.23944091796875 254.892059326171875 244.0198516845703125 244.8678436279296875 250.122161865234375 249.6063079833984375 246.024139404296875 238.560638427734375 222.287078857421875 207.448150634765625 207.7303466796875 223.118316650390625 238.670684814453125 256.544891357421875 246.471588134765625 227.3347930908203125 209.9048004150390625 202.0188751220703125 197.5074920654296875 195.261810302734375 193.8748321533203125 194.1515655517578125 195.5968475341796875 198.051116943359375 202.59661865234375 215.6327056884765625 226.5932464599609375 230.432861328125 232.8353424072265625 247.5547943115234375 259.78289794921875 255.6920623779296875 249.0667572021484375 259.05853271484375 272.220367431640625 277.734649658203125 271.279571533203125 278.7545166015625 284.893310546875 290.2017822265625
108.98001861572265625 110.4381561279296875 115.58452606201171875 119.16449737548828125 121.146942138671875 127.656707763671875 132.18212890625 141.583831787109375 157.4951019287109375 176.379180908203125 196.052490234375 207.4487762451171875 207.9073333740234375 207.5927886962890625 205.5709991455078125 209.3397979736328125 213.4573974609375 211.414825439453125 195.7527923583984375 172.858642578125 158.22943115234375 176.488800048828125 196.0188446044921875 199.227020263671875 183.306427001953125 169.6085968017578125 160.8157806396484375 162.4429168701171875 178.438507080078125 191.359283447265625 205.5811767578125 219.7571563720703125 223.8318634033203125 223.340087890625 220.7013092041015625 224.8595428466796875 227.90972900390625 224.6282958984375 233.87957763671875 239.4350738525390625 224.8940887451171875 205.58251953125 206.102813720703125 200.0980987548828125 185.6116790771484375 200.319305419921875 217.49725341796875 230.76153564453125 238.482208251953125 237.9572906494140625 236.0633697509765625 236.526641845703125 237.6059722900390625 237.9566650390625 237.5338897705078125 237.9302978515625 244.766937255859375 251.97198486328125 254.7860870361328125 257.200653076171875 267.46502685546875 273.021820068359375 278.899383544921875 288.196563720703125 294.294708251953125 300.92431640625 307.15325927734375 317.618621826171875 322.11920166015625 321.67535400390625 324.11834716796875 328.919891357421875 341.91387939453125 347.551361083984375 360.919525146484375 374.63214111328125 387.360565185546875 394.304473876953125 396.968475341796875 400.868377685546875 399.791839599609375 392.127197265625 386.4342041015625 381.25531005859375 369.721710205078125 369.381805419921875 364.16485595703125 359.52606201171875 354.49700927734375 347.0775146484375 333.7041015625 321.30780029296875 330.205230712890625 343.71868896484375 345.669464111328125 335.602874755859375 329.12579345703125 330.34576416015625 341.783447265625 337.018798828125 321.811065673828125 309.494232177734375 298.287933349609375 293.59033203125 288.9974365234375 281.0321044921875 266.1395263671875 249.45660400390625 241.4297637939453125 251.613037109375 270.346221923828125 284.056182861328125 294.868072509765625 291.972747802734375 278.08831787109375 264.479736328125 251.556549072265625 250.3107757568359375 255.503509521484375 260.08270263671875 258.952484130859375 251.9955596923828125 237.37506103515625 219.7766876220703125 207.448150634765625 213.58782958984375 228.0702056884765625 242.7855682373046875 259.308441162109375 254.6076507568359375 238.2199554443359375 225.814666748046875 211.9927215576171875 205.43658447265625 201.2913055419921875 199.1102294921875 196.53375244140625 195.0784912109375 195.0784912109375 197.889007568359375 205.7927398681640625 214.3238983154296875 217.0881195068359375 228.3213043212890625 245.1042633056640625 249.266845703125 241.5186004638671875 243.9508819580078125 256.800445556640625 263.09478759765625 263.655120849609375 260.936737060546875 269.9193115234375 274.051849365234375 286.448455810546875
108.78078460693359375 115.8368072509765625 119.507904052734375 121.6898956298828125 129.9798736572265625 137.028839111328125 140.5238037109375 140.56500244140625 153.45562744140625 173.747100830078125 190.071380615234375 203.777069091796875 213.9491729736328125 218.34100341796875 218.4268341064453125 221.5576019287109375 218.339691162109375 211.3614044189453125 196.791900634765625 173.4905242919921875 173.71844482421875 193.9761199951171875 210.31451416015625 208.9255218505859375 197.1667633056640625 183.7832794189453125 177.6578369140625 174.155364990234375 176.611724853515625 192.5793609619140625 207.24957275390625 221.2310333251953125 231.9365386962890625 234.8146209716796875 228.9710693359375 234.683502197265625 238.78533935546875 235.1084442138671875 244.3724365234375 252.7879791259765625 237.8406829833984375 215.833282470703125 218.663818359375 210.3675537109375 194.000823974609375 194.1803436279296875 214.594024658203125 233.408447265625 246.4894561767578125 254.8983154296875 257.0631103515625 257.546234130859375 258.999237060546875 259.909942626953125 260.752838134765625 260.2376708984375 255.81475830078125 249.829498291015625 250.040130615234375 252.1339874267578125 256.043182373046875 260.29644775390625 264.47039794921875 270.021575927734375 277.14599609375 283.71697998046875 293.23406982421875 304.263702392578125 307.67889404296875 307.941680908203125 311.7606201171875 323.2803955078125 339.135528564453125 350.23760986328125 357.03497314453125 365.739105224609375 375.24749755859375 379.69189453125 380.1668701171875 385.256072998046875 389.249053955078125 390.88836669921875 387.783416748046875 382.9090576171875 377.643768310546875 379.671722412109375 374.45977783203125 363.892913818359375 352.512420654296875 335.157440185546875 328.01007080078125 334.6636962890625 348.808990478515625 355.686279296875 353.499755859375 345.711578369140625 342.047760009765625 345.402191162109375 343.3189697265625 332.909881591796875 315.400421142578125 299.52288818359375 291.8431396484375 281.18023681640625 273.998626708984375 267.87005615234375 259.733062744140625 250.3086700439453125 242.117889404296875 250.797760009765625 269.744598388671875 285.24029541015625 296.257537841796875 293.31341552734375 281.110931396484375 266.818023681640625 263.83380126953125 261.239715576171875 265.216705322265625 262.826904296875 259.60772705078125 249.3191375732421875 229.6641387939453125 214.62445068359375 207.448150634765625 219.053131103515625 233.262786865234375 248.6877288818359375 265.991180419921875 265.46307373046875 252.6783294677734375 240.2430419921875 230.088287353515625 222.0876007080078125 214.2681732177734375 207.612030029296875 201.0870361328125 197.8973388671875 195.679107666015625 196.8411865234375 202.957244873046875 206.3472747802734375 212.0329132080078125 226.72149658203125 237.9552459716796875 237.5049896240234375 232.180389404296875 246.7689971923828125 253.462554931640625 253.46295166015625 251.671722412109375 263.84796142578125 273.778045654296875 269.28558349609375 282.520751953125
119.1006317138671875 126.60932159423828125 132.340576171875 134.891693115234375 136.1150360107421875 141.28936767578125 150.906646728515625 153.97869873046875 154.1387786865234375 161.094696044921875 179.783905029296875 188.2687225341796875 204.9314422607421875 218.4445343017578125 227.13848876953125 224.9382781982421875 215.9262237548828125 205.049591064453125 191.194488525390625 175.269561767578125 190.4658966064453125 207.5016632080078125 220.296783447265625 218.35125732421875 207.500030517578125 194.943817138671875 192.3018035888671875 183.2132720947265625 174.412750244140625 195.2321014404296875 210.3519439697265625 225.23876953125 236.0315093994140625 243.6107635498046875 240.6855621337890625 244.719146728515625 249.5452728271484375 246.600677490234375 257.59893798828125 262.31597900390625 249.887969970703125 229.0926055908203125 231.035675048828125 225.552001953125 208.0692596435546875 194.000823974609375 209.010955810546875 232.8337249755859375 246.901458740234375 264.210723876953125 276.177978515625 280.1224365234375 282.38427734375 283.86285400390625 289.42510986328125 292.09625244140625 289.549591064453125 280.9725341796875 275.085235595703125 277.55023193359375 277.672027587890625 275.389129638671875 275.58343505859375 277.21685791015625 279.32977294921875 283.88067626953125 287.77764892578125 291.305511474609375 296.385986328125 303.963775634765625 306.79400634765625 320.229949951171875 335.477996826171875 344.05816650390625 351.590911865234375 357.144989013671875 364.1614990234375 367.89739990234375 368.83428955078125 371.77734375 378.75494384765625 383.518157958984375 385.33575439453125 383.14276123046875 384.349700927734375 379.48480224609375 369.475372314453125 357.8321533203125 344.004547119140625 334.995269775390625 347.940948486328125 356.302337646484375 362.0751953125 365.285491943359375 359.638641357421875 356.19775390625 354.436248779296875 349.26251220703125 340.2335205078125 321.8665771484375 309.341339111328125 295.77520751953125 285.362548828125 277.785797119140625 271.266845703125 263.944610595703125 251.515777587890625 244.977325439453125 247.7347259521484375 262.719696044921875 281.067047119140625 288.2325439453125 301.0220947265625 297.069915771484375 291.586822509765625 286.546844482421875 278.177032470703125 272.20794677734375 263.597076416015625 250.92364501953125 242.3845672607421875 230.764984130859375 220.04302978515625 210.0349578857421875 209.135040283203125 220.8436431884765625 235.4902801513671875 251.734130859375 265.209197998046875 269.6046142578125 257.33001708984375 251.9954833984375 248.127197265625 238.8835906982421875 228.61016845703125 217.12457275390625 203.7044830322265625 198.2111053466796875 195.948272705078125 197.1008453369140625 200.0171661376953125 204.1111907958984375 208.5383758544921875 221.2119598388671875 231.19720458984375 226.6744232177734375 232.15582275390625 248.6059722900390625 249.880126953125 248.1444091796875 251.8808746337890625 266.90435791015625 269.205902099609375 263.593719482421875 273.205108642578125
117.4617767333984375 127.9412689208984375 138.2423248291015625 144.7938995361328125 147.9844818115234375 147.0053863525390625 152.088592529296875 161.6327972412109375 171.0145721435546875 178.032684326171875 185.758758544921875 187.9662017822265625 191.308441162109375 204.172271728515625 224.6702880859375 225.516632080078125 211.5780181884765625 199.4739532470703125 188.2099456787109375 187.0718231201171875 202.548797607421875 216.41485595703125 227.699554443359375 226.5639190673828125 219.9905548095703125 206.91552734375 200.6020050048828125 184.7747650146484375 183.3355560302734375 204.970001220703125 219.25421142578125 229.6042327880859375 238.429290771484375 248.1585845947265625 252.6634979248046875 254.86151123046875 257.769500732421875 258.365631103515625 266.403076171875 270.024444580078125 256.65472412109375 240.168304443359375 241.8221435546875 237.5625762939453125 223.768402099609375 200.0830841064453125 204.5821075439453125 225.851776123046875 244.724945068359375 262.16473388671875 274.620208740234375 283.44927978515625 293.068389892578125 299.853515625 302.60498046875 306.032958984375 309.505401611328125 307.852264404296875 302.168609619140625 300.649810791015625 300.70294189453125 300.931060791015625 299.71502685546875 299.93804931640625 300.697235107421875 309.497650146484375 308.7408447265625 310.671417236328125 312.8692626953125 321.712982177734375 324.5462646484375 322.41162109375 325.58929443359375 332.28057861328125 341.96514892578125 351.63592529296875 358.243133544921875 361.08941650390625 366.6552734375 373.52716064453125 378.377288818359375 382.114959716796875 386.315948486328125 388.38134765625 387.06365966796875 379.67083740234375 367.760894775390625 350.504638671875 339.078155517578125 344.050537109375 360.895416259765625 366.983001708984375 371.26025390625 370.6514892578125 365.224822998046875 361.526153564453125 354.9453125 337.528900146484375 327.77484130859375 319.744110107421875 311.763275146484375 300.242156982421875 289.17645263671875 282.041107177734375 273.806854248046875 263.870025634765625 251.122314453125 246.8954925537109375 258.3203125 278.163543701171875 286.340423583984375 299.740447998046875 305.477081298828125 302.627227783203125 297.15960693359375 291.552642822265625 278.886749267578125 260.13427734375 253.5334930419921875 237.9005279541015625 225.9059906005859375 218.1410064697265625 215.5767364501953125 209.4028167724609375 210.5354766845703125 221.0832672119140625 234.3090362548828125 249.4756622314453125 262.63555908203125 269.980621337890625 265.496185302734375 261.6929931640625 258.085357666015625 250.2354278564453125 237.833465576171875 222.326812744140625 209.7256011962890625 199.6114044189453125 196.3350677490234375 197.17425537109375 199.1325836181640625 202.47308349609375 206.948822021484375 213.9955596923828125 219.504150390625 217.9571685791015625 230.9376983642578125 236.643310546875 239.852203369140625 238.4559783935546875 252.278289794921875 262.286773681640625 260.52020263671875 257.156097412109375 271.304412841796875
116.7460784912109375 125.0886383056640625 136.6574859619140625 145.0012969970703125 151.712860107421875 159.5564727783203125 161.5256805419921875 162.5443878173828125 175.5921783447265625 190.425323486328125 201.202728271484375 202.1738433837890625 201.31494140625 203.2038116455078125 219.588104248046875 220.4179840087890625 208.948028564453125 199.913787841796875 187.3981170654296875 192.6033477783203125 205.9392852783203125 221.54364013671875 233.7758331298828125 234.9694976806640625 226.942626953125 216.0022430419921875 201.7567596435546875 202.016357421875 200.1156005859375 201.0472259521484375 216.4682769775390625 227.8869476318359375 238.938568115234375 248.1343536376953125 257.107025146484375 263.16058349609375 266.2779541015625 267.8428955078125 275.217864990234375 280.677459716796875 266.5357666015625 250.822296142578125 256.709869384765625 248.19940185546875 233.393798828125 209.355712890625 201.706298828125 214.107879638671875 235.327728271484375 250.4272613525390625 256.9542236328125 266.906005859375 277.775970458984375 283.547271728515625 283.912841796875 284.571380615234375 288.904510498046875 293.28778076171875 302.1722412109375 312.663543701171875 320.00726318359375 320.003204345703125 320.168365478515625 321.789764404296875 323.753387451171875 328.365997314453125 332.74591064453125 337.955902099609375 338.92138671875 330.074920654296875 341.57440185546875 344.805877685546875 343.59033203125 342.58251953125 342.330535888671875 345.11285400390625 347.177337646484375 358.273834228515625 372.080352783203125 377.78326416015625 383.94696044921875 387.205657958984375 392.2919921875 395.824066162109375 389.7969970703125 378.607635498046875 363.439727783203125 353.49481201171875 344.0230712890625 349.575347900390625 364.580963134765625 371.888641357421875 368.721160888671875 364.31903076171875 353.536651611328125 345.1231689453125 352.95501708984375 334.360137939453125 319.445526123046875 305.88275146484375 298.590423583984375 294.109893798828125 285.64190673828125 278.672210693359375 273.006591796875 264.790863037109375 252.3422088623046875 250.8147430419921875 267.283782958984375 282.084136962890625 288.991241455078125 304.095001220703125 309.922454833984375 306.992919921875 296.54302978515625 284.42822265625 262.742584228515625 245.8242340087890625 238.34796142578125 233.9777374267578125 234.3629608154296875 232.7209625244140625 226.756500244140625 215.5568695068359375 213.777099609375 225.2718963623046875 236.145050048828125 246.2595062255859375 257.399078369140625 265.12164306640625 255.5160064697265625 247.4845428466796875 249.337554931640625 247.997100830078125 236.48504638671875 223.41033935546875 221.1206207275390625 209.6237640380859375 197.7493438720703125 197.102874755859375 198.8210296630859375 200.709991455078125 204.7137298583984375 207.884063720703125 209.1058807373046875 215.400115966796875 221.6073760986328125 226.7323760986328125 229.35302734375 237.352447509765625 248.8189697265625 248.1515350341796875 248.060089111328125 258.010162353515625 266.377197265625
128.493896484375 123.45111083984375 126.36318206787109375 130.52960205078125 146.248016357421875 161.8214569091796875 174.535675048828125 178.6599578857421875 182.81622314453125 198.3289337158203125 209.8837738037109375 218.5897216796875 221.179840087890625 221.16845703125 223.7359161376953125 216.551849365234375 205.2492523193359375 196.089630126953125 190.059722900390625 201.63348388671875 208.6115570068359375 223.8948974609375 237.9986114501953125 240.8956756591796875 232.3036346435546875 216.76983642578125 205.65057373046875 216.4261016845703125 219.5469512939453125 218.3918914794921875 228.4782867431640625 229.561279296875 235.0224609375 246.748046875 258.033172607421875 268.807098388671875 274.87255859375 277.101165771484375 286.0301513671875 297.244354248046875 283.892547607421875 271.45330810546875 270.516326904296875 255.671478271484375 237.1772613525390625 219.578460693359375 207.9470062255859375 209.6077880859375 216.4752044677734375 224.5163421630859375 237.4775543212890625 250.50927734375 256.924041748046875 260.947967529296875 274.89117431640625 285.442535400390625 288.348114013671875 290.08612060546875 290.52801513671875 298.524078369140625 323.3145751953125 336.3507080078125 339.851165771484375 341.592620849609375 340.68310546875 340.922210693359375 348.220001220703125 354.563018798828125 357.287750244140625 347.032928466796875 348.239105224609375 364.486785888671875 368.46209716796875 364.7977294921875 360.432708740234375 363.46588134765625 354.781829833984375 359.702178955078125 377.87353515625 388.28900146484375 392.493408203125 392.21331787109375 396.849334716796875 402.030029296875 390.4677734375 376.739501953125 367.472930908203125 366.214263916015625 360.392181396484375 366.44915771484375 374.227783203125 362.07769775390625 351.210235595703125 348.327789306640625 331.99444580078125 332.6629638671875 348.79095458984375 339.666412353515625 329.07769775390625 316.4183349609375 304.643768310546875 290.710052490234375 276.904876708984375 267.848480224609375 264.851318359375 261.3800048828125 253.1248016357421875 255.0887603759765625 273.166015625 282.481536865234375 289.923614501953125 305.77984619140625 310.510223388671875 306.5181884765625 292.71527099609375 275.503814697265625 260.288848876953125 255.770172119140625 251.60791015625 246.527374267578125 245.2825469970703125 242.9395751953125 232.4488067626953125 217.9457550048828125 216.0522308349609375 227.7848052978515625 240.1432342529296875 250.81500244140625 257.804107666015625 263.370361328125 255.38037109375 237.02978515625 231.0543060302734375 229.13201904296875 226.3560333251953125 223.741546630859375 226.5507965087890625 212.0710601806640625 198.757293701171875 197.102874755859375 198.47454833984375 199.9878387451171875 202.9361114501953125 207.3357696533203125 211.950439453125 215.870086669921875 218.1727447509765625 224.2593994140625 227.53643798828125 232.3480682373046875 237.8018341064453125 245.40936279296875 262.80242919921875 270.294647216796875 271.535919189453125
140.5898895263671875 134.7352447509765625 134.4586639404296875 139.8464813232421875 146.1158599853515625 161.4275360107421875 182.186920166015625 190.892486572265625 200.6458282470703125 209.78118896484375 218.0486297607421875 226.8023834228515625 232.1140289306640625 233.43951416015625 232.6907958984375 225.773895263671875 214.7826385498046875 202.7745361328125 198.32843017578125 207.5954437255859375 217.011444091796875 223.7881927490234375 238.0789642333984375 242.9798583984375 235.5225982666015625 216.3113250732421875 213.187713623046875 226.5672454833984375 235.64959716796875 240.407958984375 245.9571685791015625 241.5577239990234375 239.3715972900390625 258.613189697265625 270.099853515625 277.55438232421875 283.7640380859375 288.470306396484375 296.88958740234375 309.682830810546875 297.73004150390625 286.589141845703125 280.365234375 257.132415771484375 238.4642181396484375 239.105865478515625 222.2328643798828125 222.267791748046875 232.295318603515625 234.7404022216796875 238.6553497314453125 246.6363525390625 256.406036376953125 278.62432861328125 295.154388427734375 306.33148193359375 311.51556396484375 313.61181640625 307.406982421875 296.709136962890625 318.84576416015625 343.547698974609375 359.41595458984375 364.217987060546875 362.2208251953125 356.299957275390625 359.999755859375 367.442962646484375 371.80645751953125 363.519012451171875 362.802703857421875 384.593109130859375 396.10406494140625 397.428436279296875 394.715728759765625 389.929412841796875 379.6207275390625 364.232635498046875 375.81890869140625 393.3092041015625 403.85308837890625 404.3743896484375 400.751312255859375 408.409820556640625 397.709503173828125 384.285888671875 385.097198486328125 380.966705322265625 372.4029541015625 376.300079345703125 367.22265625 355.549102783203125 340.980224609375 331.466766357421875 320.02685546875 321.908203125 332.50006103515625 335.33001708984375 330.43389892578125 317.696533203125 311.381439208984375 297.40460205078125 277.005157470703125 266.085662841796875 257.20025634765625 257.20025634765625 255.4296417236328125 265.539825439453125 280.9925537109375 287.16259765625 298.589935302734375 308.3592529296875 310.77471923828125 306.74163818359375 295.659027099609375 284.98480224609375 279.693115234375 269.312408447265625 260.6259765625 256.885040283203125 253.4525909423828125 248.445465087890625 230.1272430419921875 217.310272216796875 217.418487548828125 226.775970458984375 238.735015869140625 251.1135711669921875 257.2613525390625 263.006256103515625 250.40435791015625 238.1192169189453125 230.818756103515625 232.9692535400390625 233.3940887451171875 234.3971710205078125 233.6765289306640625 217.9329071044921875 201.24346923828125 197.102874755859375 198.347381591796875 199.7988739013671875 204.5126190185546875 210.029296875 220.6392822265625 230.2526397705078125 237.7067413330078125 242.8951416015625 243.936920166015625 243.900360107421875 247.9278564453125 254.430999755859375 267.867095947265625 278.703643798828125 285.672454833984375
160.1593780517578125 150.511993408203125 151.0242919921875 156.7568359375 159.7127532958984375 165.6288299560546875 183.3203887939453125 196.50604248046875 207.9148406982421875 216.7274322509765625 225.7331085205078125 233.578857421875 239.5995330810546875 248.841094970703125 247.43890380859375 237.573883056640625 227.0577545166015625 212.6721649169921875 212.211883544921875 212.2591705322265625 224.8829193115234375 231.7265167236328125 236.4323883056640625 245.1825714111328125 234.7191925048828125 218.879974365234375 219.518218994140625 226.678741455078125 238.7299041748046875 248.6303863525390625 255.272705078125 251.7685394287109375 248.1168212890625 264.010528564453125 276.409332275390625 284.07342529296875 291.00640869140625 300.191253662109375 308.5950927734375 317.57452392578125 307.066497802734375 293.50885009765625 281.805572509765625 261.93170166015625 259.93426513671875 248.5002899169921875 230.9131011962890625 230.795166015625 252.489166259765625 258.618896484375 264.09857177734375 271.693206787109375 279.82781982421875 294.653228759765625 313.66314697265625 325.700469970703125 331.367401123046875 325.1690673828125 314.909393310546875 300.1663818359375 311.517486572265625 335.267364501953125 354.760528564453125 369.644195556640625 380.820892333984375 374.893035888671875 376.138916015625 379.20819091796875 379.635223388671875 373.620452880859375 374.7440185546875 397.62969970703125 415.43408203125 420.092987060546875 417.9298095703125 406.78729248046875 394.040374755859375 380.4942626953125 370.85723876953125 393.389984130859375 410.994293212890625 420.214141845703125 417.85968017578125 416.03619384765625 408.92864990234375 404.469879150390625 401.6304931640625 395.1180419921875 383.659759521484375 374.558441162109375 363.73028564453125 355.00537109375 345.536590576171875 331.931854248046875 320.08563232421875 307.95025634765625 311.352264404296875 315.059661865234375 313.374176025390625 307.59393310546875 300.50177001953125 283.516845703125 272.43212890625 261.578521728515625 268.7623291015625 273.440582275390625 269.724609375 274.783477783203125 284.98681640625 292.82794189453125 305.666259765625 311.3172607421875 310.951202392578125 307.506439208984375 300.557830810546875 289.183807373046875 283.6572265625 278.42315673828125 269.07232666015625 259.525238037109375 253.08782958984375 242.7206573486328125 222.58856201171875 219.32440185546875 225.0349884033203125 224.7611083984375 234.9835968017578125 247.9867401123046875 255.9700164794921875 263.551971435546875 259.403656005859375 257.23291015625 241.5229644775390625 247.681060791015625 249.6694183349609375 247.6035614013671875 235.89459228515625 221.969207763671875 205.1705322265625 197.7095489501953125 198.389404296875 199.6354827880859375 203.7501983642578125 208.625 221.0419464111328125 232.996124267578125 236.71990966796875 232.59912109375 236.20770263671875 249.315521240234375 260.20989990234375 268.234649658203125 272.2637939453125 283.232025146484375 292.14874267578125
172.8033905029296875 165.39697265625 165.6630096435546875 170.9711761474609375 174.45184326171875 180.14031982421875 186.8764495849609375 197.0338592529296875 210.9353485107421875 222.2098388671875 232.1488800048828125 240.75152587890625 248.720672607421875 261.264556884765625 262.47052001953125 248.579681396484375 236.7158660888671875 232.66143798828125 227.8322601318359375 226.331634521484375 235.3058013916015625 242.2463531494140625 245.672698974609375 249.9771270751953125 239.068695068359375 233.805938720703125 233.6830291748046875 233.623809814453125 238.0700225830078125 248.9801788330078125 263.097412109375 262.990020751953125 260.102386474609375 264.586761474609375 277.27081298828125 286.328155517578125 296.495880126953125 308.051605224609375 320.07403564453125 323.971771240234375 312.656768798828125 299.053314208984375 289.70501708984375 288.78924560546875 286.12982177734375 256.793487548828125 239.2564849853515625 235.47662353515625 263.76953125 280.916473388671875 289.73101806640625 293.097381591796875 299.064117431640625 314.0511474609375 329.767974853515625 343.70794677734375 349.402252197265625 332.284393310546875 326.59027099609375 319.0723876953125 311.3665771484375 315.896240234375 331.8306884765625 347.742706298828125 364.251861572265625 380.80364990234375 386.6937255859375 393.5986328125 395.904296875 388.982330322265625 381.050018310546875 397.0943603515625 416.72552490234375 429.75146484375 428.98480224609375 413.53082275390625 398.787841796875 388.0465087890625 376.1727294921875 390.199951171875 404.093231201171875 418.77099609375 420.84844970703125 409.938995361328125 409.1728515625 407.540008544921875 402.7418212890625 396.755706787109375 384.286102294921875 373.940948486328125 362.87030029296875 346.175537109375 334.301055908203125 330.175048828125 323.19696044921875 311.363739013671875 293.824676513671875 293.77545166015625 291.965911865234375 287.293243408203125 279.3857421875 273.14727783203125 271.5372314453125 274.74566650390625 281.212371826171875 288.71844482421875 280.910919189453125 283.784637451171875 290.074005126953125 303.325927734375 311.906768798828125 309.27276611328125 304.656158447265625 298.0592041015625 287.857757568359375 282.24371337890625 270.767547607421875 257.815338134765625 254.0139617919921875 248.3447418212890625 237.314788818359375 227.893402099609375 219.32440185546875 226.9407806396484375 241.3365631103515625 239.89373779296875 231.707672119140625 241.5593719482421875 254.5667572021484375 265.67596435546875 270.079803466796875 262.160400390625 252.840667724609375 255.4864501953125 249.7260894775390625 236.748443603515625 228.653656005859375 218.3193511962890625 207.6163177490234375 199.140380859375 197.8221588134765625 198.2097015380859375 201.839385986328125 207.458526611328125 216.583099365234375 226.499725341796875 224.027679443359375 226.5893707275390625 238.0077056884765625 249.759368896484375 264.647308349609375 267.666290283203125 273.85626220703125 282.501068115234375 292.425750732421875
172.8890228271484375 175.8197479248046875 177.3520050048828125 183.067596435546875 185.41448974609375 190.200958251953125 194.8568267822265625 203.787017822265625 217.2379608154296875 225.9984130859375 235.1837310791015625 243.937469482421875 252.7582855224609375 264.545562744140625 268.33013916015625 258.663177490234375 250.7885589599609375 247.1418304443359375 241.1465606689453125 242.739105224609375 249.8019561767578125 253.191070556640625 254.386260986328125 255.3722381591796875 252.5419769287109375 252.4624176025390625 251.7748565673828125 247.4403076171875 255.1471710205078125 261.620849609375 271.188690185546875 274.170013427734375 274.519134521484375 280.780181884765625 284.991546630859375 288.913970947265625 299.555450439453125 311.343170166015625 321.891510009765625 323.27032470703125 325.956146240234375 312.664794921875 306.3818359375 312.22698974609375 301.937225341796875 269.0802001953125 246.4672698974609375 236.656036376953125 265.4273681640625 289.045196533203125 309.07379150390625 321.45977783203125 326.796630859375 331.163116455078125 337.50848388671875 349.121124267578125 359.21533203125 341.108612060546875 342.444366455078125 341.167877197265625 337.312652587890625 327.62445068359375 322.14093017578125 331.39434814453125 350.97052001953125 366.0775146484375 377.505828857421875 393.365447998046875 411.07708740234375 404.725921630859375 398.205230712890625 396.610198974609375 412.102783203125 426.294464111328125 436.2569580078125 422.866607666015625 405.152923583984375 392.264801025390625 380.32305908203125 384.23980712890625 395.89801025390625 409.873382568359375 420.199737548828125 402.2652587890625 389.0804443359375 389.6925048828125 387.049407958984375 380.499847412109375 368.423187255859375 358.100067138671875 355.26031494140625 351.81390380859375 332.5543212890625 319.86846923828125 314.50250244140625 306.09954833984375 291.805328369140625 284.193084716796875 278.9066162109375 277.979339599609375 275.247283935546875 277.658905029296875 287.981842041015625 297.40411376953125 302.430755615234375 299.017333984375 287.267608642578125 297.183868408203125 301.62744140625 312.812835693359375 309.92987060546875 302.56036376953125 295.809356689453125 289.95147705078125 276.39239501953125 261.779022216796875 249.8416900634765625 241.674285888671875 235.1888427734375 229.9557342529296875 227.564422607421875 221.6303558349609375 221.4586334228515625 234.6186676025390625 248.890655517578125 253.2273406982421875 240.863433837890625 244.5810394287109375 254.604888916015625 266.095123291015625 270.249420166015625 268.2374267578125 262.285125732421875 254.2645111083984375 238.891357421875 220.216705322265625 212.707366943359375 208.9396209716796875 205.3148956298828125 200.48040771484375 199.1855926513671875 199.8761138916015625 200.4106292724609375 205.9171142578125 211.6156463623046875 216.74774169921875 223.4744415283203125 233.1887054443359375 244.0263519287109375 257.74993896484375 259.576416015625 253.29931640625 262.285614013671875 280.78826904296875 291.776153564453125
166.0834197998046875 174.418243408203125 182.198028564453125 188.9246978759765625 194.3614044189453125 198.5311126708984375 203.62371826171875 213.2835235595703125 222.373321533203125 223.7928466796875 224.11895751953125 230.25115966796875 238.6113128662109375 250.1358642578125 260.565185546875 255.66558837890625 250.6161651611328125 246.4690704345703125 242.195465087890625 242.944488525390625 242.9137420654296875 247.3468170166015625 252.6631927490234375 260.7725830078125 266.7515869140625 267.83209228515625 268.5015869140625 269.219329833984375 269.562774658203125 273.67254638671875 273.09747314453125 272.166107177734375 271.437408447265625 282.048736572265625 291.552337646484375 297.72894287109375 306.12615966796875 313.591064453125 312.3570556640625 310.7440185546875 329.882537841796875 327.486053466796875 324.52459716796875 323.13287353515625 305.29034423828125 281.0882568359375 254.41510009765625 242.3940277099609375 259.730194091796875 280.4324951171875 301.803619384765625 322.033416748046875 335.49591064453125 343.323333740234375 348.886474609375 355.196990966796875 363.751129150390625 354.156219482421875 363.028839111328125 364.238739013671875 360.138092041015625 348.324462890625 341.919281005859375 334.288055419921875 342.469818115234375 358.87310791015625 367.021209716796875 382.705352783203125 398.72222900390625 413.741119384765625 415.916778564453125 400.608551025390625 415.460540771484375 429.317047119140625 442.751007080078125 431.42596435546875 413.36968994140625 394.0804443359375 381.90545654296875 384.28314208984375 397.53228759765625 412.65057373046875 417.70538330078125 406.489898681640625 389.67926025390625 379.18487548828125 371.3475341796875 365.781585693359375 357.4534912109375 348.259521484375 339.21539306640625 348.586456298828125 343.3514404296875 333.040740966796875 319.947113037109375 308.47857666015625 293.74090576171875 284.33428955078125 292.11541748046875 288.3089599609375 279.7618408203125 296.05828857421875 310.20068359375 314.384368896484375 314.871307373046875 305.7933349609375 294.810150146484375 311.97686767578125 312.722900390625 317.479461669921875 308.62176513671875 297.774139404296875 288.751739501953125 274.494049072265625 260.092437744140625 250.595550537109375 250.325927734375 249.9442291259765625 247.9316253662109375 245.057952880859375 239.7681884765625 228.4654998779296875 226.985748291015625 241.5997161865234375 255.1204986572265625 260.914459228515625 253.691162109375 260.080474853515625 262.575103759765625 263.472198486328125 259.546234130859375 262.245941162109375 256.916107177734375 244.4255828857421875 229.9788970947265625 232.750213623046875 226.00958251953125 215.762359619140625 207.522674560546875 203.8262481689453125 201.9341278076171875 200.76043701171875 200.12310791015625 204.9927520751953125 209.5378875732421875 221.52178955078125 229.9702301025390625 234.1651611328125 245.137176513671875 255.4561767578125 249.9341278076171875 245.8313140869140625 265.12744140625 281.170318603515625 278.31866455078125
154.868072509765625 165.4365081787109375 177.857940673828125 188.83642578125 196.481689453125 205.2771453857421875 212.1226959228515625 216.0413818359375 218.196502685546875 212.925689697265625 207.9311981201171875 215.7257537841796875 224.2909698486328125 237.923583984375 249.67498779296875 248.80126953125 241.0770416259765625 236.0643768310546875 231.948150634765625 228.7910003662109375 228.6459197998046875 235.7179412841796875 241.756256103515625 249.2405853271484375 262.8165283203125 266.926116943359375 265.893341064453125 266.172454833984375 270.835113525390625 264.939605712890625 258.64410400390625 260.945953369140625 257.401702880859375 269.88873291015625 282.948699951171875 291.685943603515625 298.5262451171875 298.689300537109375 294.915496826171875 297.966705322265625 319.5103759765625 322.8980712890625 325.412811279296875 325.13494873046875 309.072265625 288.407073974609375 266.63818359375 249.2075958251953125 254.16961669921875 268.44952392578125 285.94464111328125 301.599212646484375 319.736907958984375 330.662994384765625 340.17388916015625 346.984375 354.250274658203125 369.202789306640625 379.281524658203125 382.895660400390625 379.9925537109375 366.9136962890625 362.09173583984375 349.799346923828125 339.36724853515625 341.93560791015625 356.4080810546875 369.094390869140625 385.861083984375 397.68768310546875 417.09881591796875 422.406494140625 423.082611083984375 431.663055419921875 450.056365966796875 436.790985107421875 416.782501220703125 393.71826171875 383.5032958984375 389.747039794921875 395.283538818359375 409.301788330078125 411.562591552734375 407.13092041015625 401.489837646484375 393.822601318359375 381.6484375 372.211517333984375 361.630340576171875 353.8795166015625 341.441131591796875 329.35650634765625 329.958831787109375 327.716888427734375 316.41363525390625 300.742034912109375 298.830047607421875 304.408203125 304.496429443359375 288.193939208984375 296.8297119140625 315.000091552734375 326.15899658203125 329.623809814453125 324.183868408203125 308.81134033203125 305.592864990234375 327.628204345703125 324.472503662109375 314.36480712890625 303.9610595703125 294.80279541015625 281.601837158203125 275.521453857421875 271.823516845703125 271.240966796875 271.40863037109375 269.473602294921875 263.698638916015625 255.1193084716796875 245.5148468017578125 229.1503143310546875 228.3875579833984375 238.102813720703125 252.2283935546875 263.043487548828125 266.734710693359375 270.928680419921875 272.429779052734375 266.780364990234375 253.5813446044921875 249.0559844970703125 246.33416748046875 241.58978271484375 247.4814605712890625 250.4206390380859375 244.023101806640625 225.97796630859375 210.860107421875 207.2035675048828125 203.4413909912109375 200.12310791015625 201.3444976806640625 205.3404388427734375 209.6157989501953125 216.2790679931640625 219.7380523681640625 228.39013671875 238.4029998779296875 240.2555694580078125 236.6170806884765625 247.1489715576171875 269.93707275390625 271.094696044921875 263.20123291015625
150.54705810546875 163.32177734375 175.4786224365234375 185.7843780517578125 195.458099365234375 205.33135986328125 212.0282745361328125 211.48846435546875 208.5714263916015625 201.2453155517578125 192.7291259765625 199.0587158203125 213.0454254150390625 226.5686187744140625 242.1033172607421875 239.8469085693359375 232.7133636474609375 226.5303497314453125 219.9677276611328125 216.8044891357421875 220.983612060546875 229.70703125 235.5612030029296875 239.98211669921875 245.8719940185546875 250.2965850830078125 252.0205841064453125 252.0916595458984375 256.315765380859375 248.8655242919921875 245.0487213134765625 244.7090301513671875 244.6307373046875 254.9121246337890625 267.358917236328125 277.59368896484375 284.255706787109375 285.413299560546875 284.04925537109375 288.38092041015625 301.5211181640625 306.87615966796875 317.323211669921875 330.4365234375 322.195526123046875 302.065765380859375 282.537872314453125 276.258941650390625 270.645233154296875 266.819305419921875 273.059783935546875 287.2171630859375 303.46453857421875 312.89739990234375 320.091400146484375 328.177947998046875 339.88531494140625 353.73712158203125 366.44000244140625 374.072845458984375 385.667816162109375 390.781280517578125 380.961669921875 363.329376220703125 357.4071044921875 353.15673828125 347.703369140625 355.0208740234375 370.899688720703125 384.910003662109375 396.08807373046875 404.62457275390625 417.994903564453125 435.7822265625 454.65826416015625 441.156463623046875 420.260406494140625 401.649658203125 387.576751708984375 395.796478271484375 405.328033447265625 411.706451416015625 399.071014404296875 392.94561767578125 394.07061767578125 400.292877197265625 397.058563232421875 386.866943359375 377.649505615234375 363.204620361328125 345.094085693359375 327.02044677734375 318.291290283203125 320.231842041015625 312.57879638671875 300.5001220703125 319.0618896484375 310.504638671875 295.006500244140625 289.32635498046875 308.56329345703125 324.92413330078125 338.2498779296875 341.176422119140625 333.598236083984375 314.417633056640625 317.542266845703125 339.024017333984375 328.57354736328125 314.09283447265625 304.529327392578125 296.211273193359375 292.13861083984375 294.448333740234375 289.3255615234375 285.4664306640625 281.604888916015625 276.062225341796875 268.4302978515625 258.162872314453125 248.1968841552734375 228.6524505615234375 237.84234619140625 241.7068023681640625 245.4104156494140625 257.773956298828125 273.698516845703125 281.307037353515625 278.49786376953125 267.597686767578125 260.62835693359375 256.1065673828125 254.3458404541015625 253.5217742919921875 252.8011474609375 251.0564727783203125 244.3871612548828125 229.2769317626953125 212.4856719970703125 206.28204345703125 202.2591705322265625 200.1904754638671875 203.4722137451171875 207.4674835205078125 211.3789825439453125 215.1868438720703125 218.0620880126953125 220.73968505859375 226.020904541015625 231.401519775390625 244.6341400146484375 257.714385986328125 268.811248779296875 260.865386962890625 253.9484100341796875
150.8846282958984375 162.118255615234375 172.618499755859375 182.57855224609375 192.542388916015625 201.3490142822265625 207.1474456787109375 199.1691741943359375 194.1554718017578125 191.2331390380859375 180.798828125 193.410675048828125 204.3057708740234375 218.7318267822265625 234.722137451171875 233.021759033203125 223.4477691650390625 216.30072021484375 212.0818939208984375 208.6942901611328125 215.69537353515625 222.664581298828125 227.600006103515625 228.359954833984375 228.3706817626953125 235.519012451171875 240.017608642578125 241.2025909423828125 243.8923797607421875 242.2655029296875 238.8431854248046875 232.5081939697265625 230.2891845703125 240.9692840576171875 251.18701171875 261.115966796875 266.4991455078125 269.654388427734375 273.083953857421875 277.1435546875 287.014312744140625 301.95465087890625 321.07293701171875 333.57452392578125 334.77862548828125 317.49200439453125 301.609619140625 304.0760498046875 298.4716796875 289.64678955078125 286.2724609375 281.385650634765625 290.147247314453125 311.07696533203125 331.871246337890625 339.780517578125 340.500701904296875 342.036102294921875 350.8980712890625 361.486083984375 382.318756103515625 394.4638671875 397.04705810546875 387.587615966796875 383.257965087890625 372.73114013671875 367.522064208984375 370.67742919921875 362.528564453125 372.962310791015625 382.268157958984375 394.589447021484375 412.607391357421875 435.857818603515625 458.2708740234375 452.72625732421875 436.013824462890625 414.586822509765625 394.25848388671875 396.74114990234375 408.270233154296875 403.162750244140625 389.447052001953125 382.501983642578125 380.827728271484375 384.1380615234375 385.31671142578125 382.660614013671875 374.8739013671875 362.69384765625 348.3675537109375 328.055572509765625 314.967926025390625 310.217529296875 307.261871337890625 317.7598876953125 313.69268798828125 312.28131103515625 313.9136962890625 298.769866943359375 311.426971435546875 329.0111083984375 343.692047119140625 347.78173828125 340.500457763671875 320.512725830078125 328.767242431640625 337.94921875 326.962738037109375 315.6483154296875 312.360198974609375 302.08056640625 306.26019287109375 303.889617919921875 297.834259033203125 289.94110107421875 281.11981201171875 274.87799072265625 265.624603271484375 253.4820709228515625 239.31695556640625 233.0107421875 246.7895050048828125 253.1459197998046875 256.400848388671875 265.46722412109375 276.52349853515625 280.31109619140625 272.431365966796875 261.842620849609375 251.6956787109375 249.414581298828125 249.141387939453125 248.753814697265625 247.6663818359375 244.5226287841796875 237.772308349609375 228.314056396484375 210.345428466796875 205.3582000732421875 201.21295166015625 201.617706298828125 204.5874786376953125 208.4948272705078125 212.3165283203125 216.8248748779296875 222.16827392578125 228.1328887939453125 231.47186279296875 240.9466400146484375 251.1349334716796875 261.55340576171875 256.037689208984375 248.69451904296875 244.7880401611328125
164.5227813720703125 174.4804229736328125 181.9962310791015625 189.03082275390625 191.32330322265625 197.6134033203125 199.2186431884765625 193.040802001953125 178.198883056640625 180.95306396484375 176.4482421875 191.0239410400390625 203.9443817138671875 218.3060302734375 230.755279541015625 222.94598388671875 211.429351806640625 202.5947265625 197.8696746826171875 203.5300140380859375 211.6799468994140625 215.46807861328125 214.5977935791015625 212.6654510498046875 213.0511932373046875 219.8113555908203125 228.8702850341796875 228.9842681884765625 230.8632354736328125 233.144500732421875 231.492584228515625 221.8897857666015625 214.4486236572265625 226.483062744140625 236.5105743408203125 243.5718841552734375 248.6970977783203125 249.6832275390625 257.838775634765625 271.45062255859375 292.132293701171875 309.36102294921875 316.106201171875 323.48223876953125 341.67987060546875 335.445404052734375 325.12701416015625 326.46026611328125 322.642303466796875 314.78131103515625 309.23065185546875 295.563812255859375 300.16949462890625 318.209716796875 338.75689697265625 359.26129150390625 361.642974853515625 349.5257568359375 349.131317138671875 367.440093994140625 379.11956787109375 394.48443603515625 407.70355224609375 407.940826416015625 401.336334228515625 393.34027099609375 382.49853515625 382.686187744140625 369.63629150390625 383.558349609375 391.007080078125 395.5616455078125 413.7003173828125 434.579345703125 452.883575439453125 454.42523193359375 438.459381103515625 419.008270263671875 402.200042724609375 397.48486328125 403.72308349609375 397.788055419921875 385.757843017578125 371.974456787109375 366.77239990234375 366.832275390625 366.203887939453125 365.65521240234375 361.6298828125 354.614715576171875 340.22686767578125 322.26348876953125 323.012847900390625 326.090789794921875 322.976806640625 330.6932373046875 314.785186767578125 334.385955810546875 327.885833740234375 305.716827392578125 309.434295654296875 333.115570068359375 348.6405029296875 351.48248291015625 342.24609375 325.23016357421875 337.756011962890625 336.942840576171875 326.937835693359375 321.85003662109375 315.17828369140625 308.123382568359375 318.680633544921875 314.57183837890625 304.00408935546875 286.18829345703125 271.63214111328125 262.343109130859375 256.158172607421875 244.70623779296875 235.796600341796875 238.4991912841796875 251.8620758056640625 263.186126708984375 267.88604736328125 274.509674072265625 276.968292236328125 275.774871826171875 268.2886962890625 260.824798583984375 249.942840576171875 238.5802154541015625 241.588592529296875 236.9237518310546875 233.14215087890625 233.256866455078125 229.9851837158203125 218.7047576904296875 207.9163055419921875 204.0998687744140625 201.21295166015625 202.9298858642578125 205.289764404296875 207.7853546142578125 210.4779510498046875 215.1149444580078125 218.8972015380859375 225.85430908203125 233.0112152099609375 238.5489044189453125 245.413055419921875 252.657501220703125 244.072113037109375 237.1717071533203125 250.35601806640625
184.3254241943359375 190.2872772216796875 196.3474578857421875 198.6485443115234375 194.987548828125 188.1896820068359375 182.4901885986328125 184.1953887939453125 173.0553741455078125 167.66436767578125 177.7704620361328125 194.1409912109375 204.8331451416015625 213.6474151611328125 221.947296142578125 213.5614471435546875 199.8379364013671875 188.01531982421875 184.9511566162109375 192.2854766845703125 200.75244140625 206.622283935546875 205.32208251953125 196.1636962890625 195.7195892333984375 202.9004974365234375 210.47503662109375 211.865447998046875 216.0756683349609375 222.2491607666015625 223.4680633544921875 214.1020050048828125 201.4788055419921875 211.8990325927734375 220.517547607421875 227.20928955078125 229.993133544921875 243.452056884765625 256.63751220703125 271.866241455078125 288.53631591796875 300.705810546875 301.4139404296875 311.629791259765625 329.9156494140625 347.138916015625 346.18048095703125 343.458221435546875 347.703094482421875 342.917236328125 331.109954833984375 316.396087646484375 305.9637451171875 327.30108642578125 346.68267822265625 367.353790283203125 377.99798583984375 365.484954833984375 358.64031982421875 376.820526123046875 387.38726806640625 396.96551513671875 405.81298828125 403.372467041015625 401.172271728515625 403.01934814453125 399.045806884765625 382.449951171875 379.123199462890625 392.1458740234375 404.869049072265625 410.349212646484375 415.647003173828125 427.16680908203125 442.342926025390625 452.807708740234375 446.226043701171875 433.97674560546875 418.711669921875 404.978790283203125 401.945159912109375 392.78289794921875 383.111114501953125 370.575469970703125 368.980010986328125 359.765838623046875 354.841949462890625 350.83013916015625 348.0643310546875 339.5916748046875 331.875823974609375 332.552764892578125 342.242431640625 339.633819580078125 336.513916015625 334.023529052734375 326.2161865234375 347.153717041015625 337.3316650390625 315.81951904296875 309.32745361328125 335.436859130859375 351.09844970703125 353.810516357421875 343.381011962890625 333.097198486328125 342.609771728515625 343.378814697265625 334.808013916015625 329.957000732421875 320.681640625 318.455474853515625 324.223846435546875 318.412261962890625 305.754486083984375 287.163238525390625 272.642425537109375 252.8722381591796875 246.367218017578125 243.47528076171875 239.80242919921875 239.42059326171875 254.89910888671875 271.61346435546875 281.609619140625 281.509185791015625 271.4886474609375 268.1859130859375 261.767791748046875 252.2493743896484375 240.9173431396484375 229.19769287109375 226.41650390625 222.272613525390625 218.9934539794921875 220.46514892578125 217.716552734375 208.9197845458984375 205.6450653076171875 202.1185760498046875 202.23101806640625 204.2599639892578125 206.2846527099609375 207.8517608642578125 209.991119384765625 213.1490631103515625 216.7215576171875 220.7139434814453125 227.9207000732421875 233.3212890625 236.1912841796875 233.987335205078125 228.96044921875 234.17218017578125 239.750885009765625
200.5709686279296875 200.845611572265625 201.9850311279296875 201.6951141357421875 192.4970703125 174.37310791015625 163.49884033203125 164.1545257568359375 160.5848541259765625 157.7297515869140625 176.5752105712890625 191.305877685546875 199.364044189453125 204.2443389892578125 211.56427001953125 203.97625732421875 190.7588043212890625 174.7472076416015625 172.120513916015625 181.3173065185546875 186.2320098876953125 194.6666259765625 199.689971923828125 191.6958465576171875 179.39251708984375 186.66180419921875 194.349090576171875 197.25079345703125 205.3170928955078125 211.0768890380859375 213.982940673828125 207.6107177734375 191.4643096923828125 197.707489013671875 205.477294921875 205.6788482666015625 220.7816314697265625 239.59710693359375 253.41571044921875 263.52130126953125 271.510955810546875 271.55914306640625 289.7479248046875 311.073822021484375 332.099639892578125 348.62774658203125 351.224761962890625 352.36553955078125 352.86474609375 354.738433837890625 351.183319091796875 340.466705322265625 322.647064208984375 323.77581787109375 336.34356689453125 356.333099365234375 372.053009033203125 382.606689453125 379.6439208984375 388.06121826171875 386.89990234375 392.160125732421875 395.201568603515625 382.289764404296875 383.211578369140625 396.4012451171875 407.700286865234375 395.784393310546875 398.13787841796875 403.832550048828125 417.30718994140625 426.35565185546875 430.571807861328125 438.213409423828125 447.63983154296875 459.02178955078125 459.21392822265625 445.32501220703125 425.768524169921875 412.2806396484375 401.222564697265625 389.512115478515625 380.279144287109375 377.558746337890625 378.69659423828125 372.928253173828125 374.362152099609375 363.204132080078125 359.022674560546875 346.647735595703125 349.842742919921875 343.4102783203125 349.53204345703125 346.799468994140625 343.0177001953125 334.668487548828125 339.88568115234375 352.194122314453125 342.63861083984375 332.50323486328125 320.610198974609375 335.893096923828125 353.103668212890625 356.60906982421875 344.858367919921875 349.937591552734375 354.010650634765625 352.3575439453125 346.337677001953125 342.9053955078125 339.424224853515625 332.476287841796875 326.493011474609375 317.68310546875 306.2821044921875 292.883941650390625 281.09100341796875 267.62176513671875 261.873321533203125 258.00390625 244.29486083984375 251.23883056640625 256.218170166015625 281.12957763671875 288.7474365234375 278.976226806640625 265.82666015625 255.2200927734375 250.4895477294921875 243.1456451416015625 236.03546142578125 226.5953521728515625 224.1008453369140625 220.9641571044921875 215.0653533935546875 210.3585662841796875 208.353424072265625 206.9527435302734375 205.8987274169921875 202.1185760498046875 203.368255615234375 205.6332244873046875 207.75396728515625 209.822723388671875 211.644744873046875 213.4878692626953125 214.92303466796875 216.8704833984375 218.77294921875 222.18829345703125 224.78936767578125 227.43603515625 231.764739990234375 236.03814697265625 236.3885345458984375
185.4001007080078125 186.906097412109375 197.026824951171875 192.5804595947265625 185.8795318603515625 178.511810302734375 161.8596038818359375 148.002227783203125 146.0137786865234375 155.360992431640625 169.5677947998046875 178.7392120361328125 184.4791412353515625 187.462188720703125 200.418304443359375 192.62060546875 182.16546630859375 166.736846923828125 153.5474853515625 170.468780517578125 172.7647857666015625 178.434906005859375 186.691375732421875 187.156158447265625 173.719818115234375 172.5594482421875 180.614105224609375 186.9076690673828125 195.876434326171875 201.244171142578125 202.7276763916015625 197.71844482421875 181.27032470703125 184.49237060546875 190.713287353515625 207.2686767578125 223.3175811767578125 238.0772705078125 247.8631439208984375 252.0777130126953125 254.9940032958984375 274.365875244140625 296.417724609375 320.24951171875 339.6241455078125 344.8924560546875 347.353790283203125 348.925933837890625 340.27996826171875 342.97442626953125 354.209625244140625 353.23114013671875 347.20233154296875 346.240386962890625 346.228271484375 358.799591064453125 374.104278564453125 383.8121337890625 379.47723388671875 368.672760009765625 363.423980712890625 378.5235595703125 375.314544677734375 368.322265625 388.68682861328125 403.066680908203125 412.49688720703125 417.501068115234375 418.454498291015625 412.335235595703125 419.437957763671875 426.139801025390625 437.250762939453125 444.69134521484375 450.16497802734375 456.289764404296875 459.2264404296875 451.1634521484375 432.525421142578125 417.5345458984375 404.3697509765625 391.10748291015625 383.665679931640625 383.3084716796875 387.839447021484375 388.16571044921875 389.649261474609375 383.402191162109375 368.8935546875 362.767242431640625 371.61529541015625 357.063385009765625 361.403289794921875 352.31695556640625 342.308807373046875 342.1258544921875 355.55767822265625 355.576629638671875 347.674224853515625 339.10040283203125 327.881500244140625 333.57733154296875 351.537353515625 361.4268798828125 351.70355224609375 360.296173095703125 364.402313232421875 354.33660888671875 340.756317138671875 330.534027099609375 332.923858642578125 329.622711181640625 321.350921630859375 316.103363037109375 307.283721923828125 301.99798583984375 290.32354736328125 284.53668212890625 277.798248291015625 258.87005615234375 259.2078857421875 273.28912353515625 265.242340087890625 284.272186279296875 290.49554443359375 272.00946044921875 256.34429931640625 244.0264739990234375 238.3129119873046875 235.6283721923828125 234.9934844970703125 240.1711578369140625 241.35736083984375 240.132843017578125 228.6530914306640625 217.0912017822265625 213.7840423583984375 212.3862152099609375 209.061767578125 202.6057586669921875 204.1122894287109375 206.4329681396484375 208.7451019287109375 211.318206787109375 214.2840118408203125 216.9794769287109375 219.23822021484375 219.402618408203125 218.93133544921875 222.756866455078125 228.5095672607421875 236.355743408203125 246.6318206787109375 251.0490875244140625 249.1013336181640625
160.2648773193359375 173.176666259765625 194.5045928955078125 179.2631378173828125 166.7980804443359375 164.464019775390625 162.52911376953125 149.0002593994140625 139.5670318603515625 151.1038818359375 159.238616943359375 168.8155975341796875 168.400390625 176.2079010009765625 186.957855224609375 185.458282470703125 176.684539794921875 162.23663330078125 143.6935577392578125 154.23687744140625 159.387176513671875 166.0250244140625 171.4864654541015625 175.5960845947265625 172.314697265625 156.0648956298828125 169.1149139404296875 174.6318359375 181.8841552734375 184.984771728515625 188.993255615234375 184.55133056640625 173.05889892578125 175.3853302001953125 195.9066009521484375 211.973052978515625 224.3369140625 232.9903717041015625 240.168212890625 241.5272064208984375 255.5251312255859375 276.617523193359375 298.476470947265625 317.908966064453125 328.283966064453125 323.71844482421875 334.210205078125 342.30474853515625 330.318878173828125 339.098388671875 353.27447509765625 359.7298583984375 363.831390380859375 369.354522705078125 375.9881591796875 380.64410400390625 381.816192626953125 374.78411865234375 362.33673095703125 355.918121337890625 351.545318603515625 361.54644775390625 359.1903076171875 380.11737060546875 396.7913818359375 400.02008056640625 400.930328369140625 408.1451416015625 402.23248291015625 401.679534912109375 403.64459228515625 416.80657958984375 434.703765869140625 437.276641845703125 439.24371337890625 442.681396484375 448.961517333984375 446.085296630859375 438.756134033203125 426.15802001953125 417.229736328125 404.562713623046875 396.899383544921875 389.302764892578125 395.64129638671875 400.62542724609375 400.193695068359375 385.28204345703125 374.7861328125 381.306793212890625 381.90667724609375 376.618743896484375 368.096099853515625 354.6986083984375 350.805267333984375 346.705413818359375 361.968994140625 357.4600830078125 352.407928466796875 343.44415283203125 336.47100830078125 331.377716064453125 341.617828369140625 359.138214111328125 362.407379150390625 369.57171630859375 365.358367919921875 352.54925537109375 335.34429931640625 314.93035888671875 306.294891357421875 304.663330078125 301.848724365234375 298.95599365234375 295.397674560546875 290.8240966796875 287.97900390625 284.667266845703125 281.61181640625 270.9158935546875 283.149810791015625 287.1575927734375 283.007232666015625 289.613494873046875 289.69891357421875 272.19244384765625 253.2643585205078125 254.410888671875 252.344940185546875 244.698272705078125 245.0919647216796875 256.301910400390625 255.4577178955078125 250.107696533203125 245.19378662109375 230.7337493896484375 218.6221160888671875 211.132965087890625 207.8070831298828125 202.8384246826171875 204.504119873046875 206.7911834716796875 208.9155731201171875 211.2020721435546875 213.7259063720703125 217.391143798828125 221.1031494140625 223.745941162109375 223.0555419921875 223.4405670166015625 226.47100830078125 234.1268310546875 246.8393707275390625 257.468231201171875 262.536041259765625
153.3233489990234375 173.7292327880859375 191.0777740478515625 189.14117431640625 166.3273773193359375 148.2223968505859375 145.2393951416015625 143.5762176513671875 126.637115478515625 142.0229949951171875 152.3684234619140625 160.838623046875 154.4462890625 160.9302215576171875 176.77471923828125 178.810150146484375 171.280487060546875 159.92303466796875 141.0225372314453125 138.9048309326171875 148.0548248291015625 156.8451995849609375 157.3769073486328125 157.4810638427734375 152.8589019775390625 145.5949249267578125 157.1121826171875 158.5516815185546875 162.3903350830078125 159.612152099609375 172.8586578369140625 172.578765869140625 162.619354248046875 174.8023681640625 195.17059326171875 209.2938690185546875 219.46734619140625 226.1105499267578125 230.9220123291015625 235.9254608154296875 255.21234130859375 273.69696044921875 296.321807861328125 305.49200439453125 311.3157958984375 309.683563232421875 324.009002685546875 332.19378662109375 318.99676513671875 327.0889892578125 342.107879638671875 352.198638916015625 364.808197021484375 372.30462646484375 377.200927734375 373.75872802734375 362.814666748046875 358.6121826171875 352.868011474609375 340.727264404296875 341.12261962890625 351.493194580078125 366.843963623046875 391.090911865234375 392.8564453125 379.739837646484375 386.53753662109375 395.29400634765625 383.72857666015625 389.5546875 404.34124755859375 420.316436767578125 428.716339111328125 426.61773681640625 430.402374267578125 431.447174072265625 436.342071533203125 435.85467529296875 432.017425537109375 428.689727783203125 422.620147705078125 414.2467041015625 410.466461181640625 406.38055419921875 408.661102294921875 407.0648193359375 400.98382568359375 388.258514404296875 390.134490966796875 392.886810302734375 392.102691650390625 384.881591796875 368.86883544921875 359.436431884765625 363.86895751953125 353.087982177734375 365.22064208984375 358.675384521484375 354.847808837890625 355.566650390625 344.200592041015625 335.8056640625 338.145660400390625 351.832916259765625 368.961883544921875 369.808380126953125 358.113189697265625 348.481719970703125 331.089935302734375 312.036376953125 302.0462646484375 299.0572509765625 295.906890869140625 290.340484619140625 278.987762451171875 275.063385009765625 270.821533203125 272.3721923828125 281.76348876953125 284.85205078125 295.652252197265625 299.176666259765625 298.375396728515625 300.87725830078125 292.997711181640625 277.631500244140625 265.771148681640625 269.37060546875 264.664215087890625 251.2612457275390625 252.00299072265625 267.82745361328125 274.654693603515625 267.56036376953125 259.447479248046875 246.5418701171875 227.39862060546875 211.58367919921875 206.2513885498046875 203.2416534423828125 204.89105224609375 206.9541473388671875 208.9861602783203125 210.9209136962890625 213.13885498046875 215.83612060546875 218.778167724609375 222.9355621337890625 227.774261474609375 235.1970672607421875 234.0669708251953125 230.4940643310546875 241.954315185546875 253.9000244140625 261.427459716796875
153.3060455322265625 171.1192474365234375 188.0017852783203125 191.7608184814453125 183.6930084228515625 160.185882568359375 141.118438720703125 127.536773681640625 119.445709228515625 132.0643157958984375 148.03363037109375 153.3524169921875 140.844482421875 143.947418212890625 165.831817626953125 169.0221405029296875 163.8002166748046875 152.1765594482421875 141.152587890625 128.8060760498046875 138.42938232421875 146.812652587890625 141.9918975830078125 137.482940673828125 132.12530517578125 137.047821044921875 149.9654388427734375 144.3103790283203125 140.69573974609375 149.0006866455078125 157.39862060546875 158.9709014892578125 147.787384033203125 168.9417572021484375 187.9290618896484375 201.1261749267578125 209.968658447265625 213.37591552734375 216.2141876220703125 232.0699005126953125 248.770721435546875 267.29998779296875 282.01983642578125 286.819427490234375 293.733978271484375 292.877716064453125 311.599456787109375 312.611572265625 307.161529541015625 317.819976806640625 329.825286865234375 349.164703369140625 362.669036865234375 362.71624755859375 359.912200927734375 355.070556640625 345.096954345703125 344.931365966796875 340.423797607421875 336.392333984375 352.982757568359375 370.014190673828125 385.010223388671875 393.12005615234375 383.751556396484375 366.831085205078125 367.747650146484375 368.7646484375 382.38507080078125 401.68304443359375 419.90435791015625 424.198394775390625 416.773895263671875 408.278839111328125 416.2701416015625 412.99493408203125 424.6812744140625 422.826324462890625 415.184051513671875 413.977447509765625 423.208740234375 419.977691650390625 411.243408203125 420.442840576171875 421.062103271484375 408.886260986328125 400.6966552734375 397.06427001953125 398.789276123046875 400.877288818359375 401.172454833984375 385.176239013671875 369.460174560546875 376.1751708984375 369.2042236328125 364.520843505859375 372.042816162109375 366.248779296875 366.233978271484375 357.834808349609375 346.893646240234375 347.0537109375 340.769378662109375 352.3265380859375 374.136383056640625 363.021087646484375 343.134979248046875 333.43634033203125 323.678558349609375 310.4332275390625 310.92303466796875 315.46258544921875 312.788360595703125 301.759185791015625 293.595703125 289.312744140625 277.97650146484375 267.68304443359375 276.183502197265625 285.87445068359375 298.446044921875 308.985687255859375 319.548095703125 317.480743408203125 305.121612548828125 289.845947265625 280.84674072265625 279.634521484375 270.27288818359375 254.785491943359375 257.793304443359375 274.9488525390625 288.959259033203125 278.139007568359375 265.26092529296875 252.5225830078125 239.469146728515625 218.3499755859375 208.0787200927734375 204.582489013671875 204.3567657470703125 208.60772705078125 209.9866180419921875 212.6482696533203125 215.46630859375 217.4908599853515625 218.2182464599609375 219.259552001953125 224.7072601318359375 233.2275543212890625 241.174041748046875 239.0321197509765625 236.252532958984375 248.8367462158203125 256.431060791015625
