ncols        154
nrows        32
xllcorner    -32190
yllcorner    -158060
cellsize     10.000000000000
NODATA_value  -999
944.498291015625 939.81500244140625 937.43951416015625 935.88385009765625 934.44488525390625 933.30767822265625 932.032958984375 930.53314208984375 929.05279541015625 927.64764404296875 925.8411865234375 922.99273681640625 918.60479736328125 910.47283935546875 901.05120849609375 893.7552490234375 889.62286376953125 886.20819091796875 881.50830078125 875.763671875 871.05108642578125 864.1541748046875 854.33892822265625 845.55535888671875 839.83416748046875 835.8084716796875 832.2412109375 828.5933837890625 824.4288330078125 819.512451171875 814.22613525390625 808.74151611328125 804.45477294921875 801.1436767578125 798.183349609375 794.15667724609375 788.524169921875 782.7032470703125 778.934814453125 776.10101318359375 770.92486572265625 764.98492431640625 759.79510498046875 755.18206787109375 751.13824462890625 746.7266845703125 740.88958740234375 735.130859375 731.87359619140625 729.667724609375 726.079345703125 720.5972900390625 715.2967529296875 709.50042724609375 703.15081787109375 698.209716796875 694.6031494140625 691.05523681640625 685.99664306640625 679.08062744140625 672.19757080078125 666.24530029296875 660.781982421875 655.52264404296875 649.95648193359375 643.93682861328125 638.62445068359375 633.72808837890625 628.6339111328125 623.8094482421875 618.5626220703125 611.89044189453125 606.65716552734375 601.67169189453125 596.36785888671875 591.23974609375 585.38238525390625 579.15740966796875 573.51043701171875 568.01416015625 562.065673828125 556.6500244140625 552.121337890625 547.75286865234375 543.546875 539.12835693359375 533.48040771484375 526.58843994140625 518.935546875 513.4385986328125 507.749664306640625 501.8760986328125 496.396087646484375 490.59375 484.2730712890625 477.56292724609375 471.9697265625 467.99993896484375 464.76611328125 462.41290283203125 460.82196044921875 458.766204833984375 455.76971435546875 452.54864501953125 449.715240478515625 447.687744140625 446.238494873046875 445.032562255859375 443.242218017578125 441.43426513671875 439.189117431640625 436.607513427734375 434.001190185546875 431.467437744140625 429.5394287109375 427.6724853515625 425.89007568359375 424.145172119140625 422.082122802734375 420.07916259765625 418.9603271484375 419.234466552734375 420.038177490234375 419.167022705078125 416.2769775390625 414.106536865234375 413.658050537109375 413.539520263671875 413.36383056640625 413.187652587890625 412.82342529296875 412.446990966796875 412.153350830078125 411.887420654296875 411.7047119140625 411.727996826171875 411.698333740234375 411.604461669921875 411.46307373046875 411.321502685546875 411.1845703125 411.037567138671875 410.975128173828125 411.00018310546875 411.0704345703125 411.077301025390625 411.0780029296875 411.0787353515625 411.07891845703125 410.9910888671875 410.81256103515625 410.623809814453125 410.43438720703125 410.2449951171875
939.43804931640625 935.4619140625 932.533935546875 930.0484619140625 928.35626220703125 927.28790283203125 926.0289306640625 924.7554931640625 923.70355224609375 922.7947998046875 921.4033203125 919.916015625 917.1005859375 909.33880615234375 900.96221923828125 891.96417236328125 886.32073974609375 882.24810791015625 876.7952880859375 870.17205810546875 866.22930908203125 860.77056884765625 852.0374755859375 842.94873046875 836.1160888671875 831.56622314453125 827.6572265625 823.50201416015625 818.908935546875 814.16900634765625 809.4197998046875 804.08966064453125 799.1580810546875 795.167236328125 792.42327880859375 789.52105712890625 784.5145263671875 778.88739013671875 774.0230712890625 770.75140380859375 766.837158203125 761.73486328125 756.19366455078125 750.70013427734375 745.854248046875 741.33056640625 736.11376953125 731.27423095703125 728.0008544921875 725.57916259765625 722.013671875 716.4354248046875 710.37158203125 703.5809326171875 698.406005859375 695.0667724609375 691.87750244140625 688.14495849609375 682.92242431640625 676.3994140625 669.7640380859375 663.7008056640625 658.4423828125 653.8006591796875 648.4224853515625 641.81640625 636.0045166015625 631.17620849609375 626.40179443359375 621.29473876953125 614.82196044921875 608.35809326171875 603.87677001953125 598.7890625 593.0906982421875 587.4591064453125 581.63531494140625 576.01361083984375 570.787109375 565.92779541015625 560.795166015625 555.647705078125 550.89898681640625 546.37127685546875 541.91455078125 537.03411865234375 531.4820556640625 525.451171875 518.4525146484375 512.67230224609375 506.98980712890625 501.49090576171875 495.818328857421875 489.792755126953125 483.887481689453125 477.412200927734375 470.85302734375 465.612884521484375 461.38543701171875 458.939727783203125 457.12872314453125 454.689727783203125 452.00457763671875 449.46063232421875 447.25 445.032623291015625 442.8963623046875 440.691375732421875 439.824676513671875 438.943695068359375 437.77618408203125 435.5201416015625 433.150787353515625 431.248291015625 429.515380859375 428.07476806640625 426.723480224609375 425.313507080078125 423.374114990234375 421.2069091796875 419.26263427734375 418.189208984375 418.2003173828125 417.643280029296875 415.6214599609375 414.137481689453125 413.3751220703125 412.57269287109375 412.473968505859375 412.374755859375 412.086944580078125 411.715301513671875 411.421905517578125 411.283599853515625 411.314666748046875 411.403564453125 411.373321533203125 411.27947998046875 411.18060302734375 411.039154052734375 410.893646240234375 410.79376220703125 410.731597900390625 410.735198974609375 410.76324462890625 410.833740234375 410.83447265625 410.835205078125 410.8358154296875 410.824951171875 410.72314453125 410.54205322265625 410.3526611328125 410.16326904296875
935.1561279296875 931.84716796875 928.32550048828125 924.80596923828125 921.65289306640625 919.6405029296875 918.87139892578125 918.33367919921875 917.7061767578125 917.18499755859375 916.7432861328125 915.91668701171875 914.65704345703125 908.7841796875 902.42388916015625 893.473876953125 885.10858154296875 878.11614990234375 870.70562744140625 865.59893798828125 862.40234375 858.140380859375 851.000732421875 842.714599609375 834.58355712890625 827.5665283203125 822.9630126953125 818.8873291015625 813.9056396484375 809.18310546875 805.12103271484375 799.92279052734375 794.8106689453125 789.28045654296875 786.19146728515625 784.5953369140625 780.77978515625 775.31756591796875 769.11285400390625 764.02325439453125 760.8128662109375 757.05377197265625 752.322509765625 747.42059326171875 742.30389404296875 737.34686279296875 732.822509765625 728.4639892578125 724.822998046875 721.18902587890625 716.58917236328125 710.46185302734375 703.6282958984375 698.18487548828125 694.1864013671875 691.20037841796875 688.05242919921875 684.20001220703125 679.47381591796875 673.1619873046875 666.95989990234375 661.416259765625 656.24169921875 651.31219482421875 645.64178466796875 639.315185546875 634.05963134765625 629.03436279296875 624.15716552734375 618.79779052734375 612.00738525390625 606.39019775390625 601.6070556640625 596.3551025390625 590.70648193359375 584.89495849609375 578.83941650390625 572.82000732421875 567.75390625 563.2149658203125 558.52764892578125 553.56744384765625 548.7281494140625 544.18609619140625 539.62762451171875 534.8338623046875 529.4620361328125 523.41839599609375 517.26953125 511.275177001953125 505.590667724609375 499.937835693359375 494.48101806640625 488.615386962890625 482.60205078125 476.400604248046875 470.512725830078125 465.464752197265625 460.820587158203125 455.8482666015625 452.055145263671875 449.92608642578125 448.28662109375 446.9957275390625 445.685760498046875 443.329437255859375 440.839813232421875 438.921356201171875 437.58905029296875 436.6632080078125 435.606475830078125 434.233306884765625 432.350677490234375 430.342864990234375 428.58050537109375 426.72003173828125 424.504608154296875 423.145751953125 422.62255859375 421.463775634765625 419.545257568359375 417.910614013671875 416.863067626953125 415.991058349609375 415.04644775390625 414.317596435546875 413.647064208984375 412.7135009765625 411.933624267578125 411.49053955078125 411.277374267578125 410.975677490234375 410.874603271484375 410.89910888671875 410.983367919921875 411.07916259765625 411.04833984375 410.954498291015625 410.86065673828125 410.719024658203125 410.572906494140625 410.47906494140625 410.41741943359375 410.437408447265625 410.49603271484375 410.531951904296875 410.5909423828125 410.5916748046875 410.592376708984375 410.593109130859375 410.5030517578125 410.3819580078125 410.257568359375 409.723388671875
930.67822265625 926.32061767578125 922.0386962890625 918.7235107421875 916.5340576171875 915.11712646484375 913.98150634765625 913.11053466796875 912.3414306640625 911.5478515625 911.109375 911.1781005859375 911.8419189453125 909.2498779296875 902.65863037109375 894.4229736328125 884.82440185546875 876.63397216796875 868.30926513671875 860.67010498046875 857.1484375 854.36083984375 849.02490234375 841.9141845703125 833.7120361328125 825.17364501953125 818.02825927734375 812.110107421875 806.98712158203125 802.98974609375 799.31982421875 795.3836669921875 790.3841552734375 783.6868896484375 778.2562255859375 777.67120361328125 775.28436279296875 770.98974609375 764.49853515625 757.89971923828125 753.64044189453125 750.934326171875 747.80950927734375 743.817626953125 739.3707275390625 734.76470947265625 730.32659912109375 726.251708984375 722.64892578125 718.58087158203125 712.8631591796875 705.4178466796875 698.93084716796875 694.64984130859375 690.70526123046875 686.2796630859375 682.901123046875 679.58221435546875 675.0093994140625 669.97698974609375 665.1453857421875 659.90869140625 654.3050537109375 648.6727294921875 642.79168701171875 636.9990234375 631.83544921875 626.86614990234375 621.9844970703125 616.0867919921875 609.5408935546875 604.7034912109375 599.807373046875 594.4620361328125 589.0433349609375 583.3494873046875 577.12786865234375 570.84588623046875 565.6153564453125 560.89825439453125 556.0338134765625 551.0799560546875 546.329833984375 541.7857666015625 537.1871337890625 532.3656005859375 527.056640625 521.10260009765625 515.08612060546875 509.20306396484375 504.00091552734375 498.377471923828125 492.4429931640625 486.564605712890625 480.63330078125 474.711181640625 469.3507080078125 464.643768310546875 459.501007080078125 453.4095458984375 448.647369384765625 446.33349609375 445.2177734375 444.53619384765625 443.7054443359375 441.8621826171875 439.677581787109375 437.920013427734375 436.31195068359375 434.91162109375 433.47796630859375 432.396148681640625 430.860870361328125 429.28277587890625 427.46502685546875 425.053070068359375 422.3856201171875 421.091339111328125 421.209014892578125 420.871337890625 419.577606201171875 418.043609619140625 416.595855712890625 415.505096435546875 414.815155029296875 414.309234619140625 413.652008056640625 412.8443603515625 412.2996826171875 411.311614990234375 410.550445556640625 410.3875732421875 410.466064453125 410.56317138671875 410.658935546875 410.71795654296875 410.7039794921875 410.6295166015625 410.53564453125 410.41900634765625 410.27783203125 410.1737060546875 410.14453125 410.172576904296875 410.2459716796875 410.263671875 410.3414306640625 410.297515869140625 410.298492431640625 410.2994384765625 410.2093505859375 410.15814208984375 409.63238525390625 408.53472900390625
925.68109130859375 918.75048828125 913.36578369140625 911.06304931640625 910.2568359375 909.268310546875 907.5699462890625 905.63525390625 903.5418701171875 902.22650146484375 901.44671630859375 901.75555419921875 903.26593017578125 902.957275390625 899.21533203125 892.77862548828125 883.6229248046875 874.66143798828125 865.65435791015625 857.564697265625 851.30548095703125 847.1654052734375 843.51837158203125 838.62042236328125 831.76544189453125 823.5693359375 815.28857421875 807.43109130859375 800.89019775390625 796.84967041015625 792.52813720703125 788.031982421875 784.9212646484375 778.9407958984375 772.99737548828125 769.8636474609375 769.1849365234375 766.14581298828125 760.45611572265625 754.02239990234375 748.2080078125 744.27978515625 741.97601318359375 739.31329345703125 735.4599609375 731.3363037109375 727.3529052734375 723.26153564453125 719.160400390625 715.10186767578125 709.2083740234375 701.2740478515625 696.02685546875 692.13116455078125 687.8717041015625 682.722900390625 677.66522216796875 673.3348388671875 669.9658203125 666.91064453125 663.2825927734375 658.24261474609375 652.1663818359375 645.8995361328125 639.94439697265625 634.53863525390625 629.3626708984375 624.40240478515625 619.24053955078125 613.00262451171875 607.31640625 602.8624267578125 597.70062255859375 592.04510498046875 587.16802978515625 581.94097900390625 575.62799072265625 569.35272216796875 563.9359130859375 558.96124267578125 553.92950439453125 548.68115234375 543.6490478515625 539.071044921875 534.44403076171875 529.440185546875 523.9364013671875 517.87359619140625 511.88116455078125 506.90277099609375 502.128265380859375 496.324981689453125 490.129974365234375 483.918182373046875 478.291046142578125 472.866424560546875 467.947265625 463.409088134765625 457.93682861328125 451.537750244140625 446.336090087890625 443.483673095703125 442.366363525390625 442.017669677734375 441.47735595703125 440.211639404296875 438.2684326171875 436.651885986328125 435.09332275390625 433.7626953125 432.019500732421875 430.363311767578125 428.292083740234375 426.695220947265625 425.57177734375 423.655242919921875 421.095184326171875 419.611297607421875 419.359619140625 419.15643310546875 418.333740234375 417.276031494140625 416.33660888671875 415.38299560546875 414.52490234375 413.8228759765625 413.053009033203125 412.328826904296875 412.115478515625 411.578826904296875 410.14080810546875 409.904388427734375 410.056732177734375 410.196319580078125 410.299591064453125 410.35052490234375 410.36224365234375 410.304534912109375 410.210662841796875 410.0516357421875 409.78814697265625 409.525482177734375 409.40606689453125 409.465118408203125 409.64141845703125 409.75665283203125 409.791961669921875 409.62091064453125 409.59405517578125 409.53851318359375 409.307403564453125 409.025146484375 408.018646240234375 406.624786376953125
920.875244140625 912.76123046875 906.76025390625 904.489013671875 903.537109375 901.74847412109375 899.5555419921875 897.711669921875 895.660888671875 893.93310546875 892.1939697265625 892.0391845703125 894.2423095703125 895.5325927734375 893.7623291015625 889.3233642578125 881.90325927734375 872.27105712890625 863.1173095703125 854.9345703125 846.07403564453125 839.84344482421875 836.43548583984375 833.25152587890625 828.4010009765625 821.4716796875 813.1707763671875 804.2490234375 796.33355712890625 791.73980712890625 786.5828857421875 780.548828125 777.6917724609375 774.07366943359375 768.67791748046875 762.785888671875 762.52069091796875 760.98663330078125 756.90533447265625 751.27520751953125 744.47442626953125 739.08306884765625 735.880859375 733.11236572265625 730.01617431640625 727.10614013671875 723.91229248046875 719.43072509765625 714.32861328125 710.1390380859375 704.758544921875 698.21722412109375 693.9649658203125 689.87786865234375 685.2991943359375 680.05340576171875 673.86712646484375 668.08209228515625 665.22845458984375 663.60076904296875 660.54632568359375 655.61376953125 649.47900390625 642.9820556640625 637.03973388671875 631.7918701171875 626.638671875 621.5528564453125 616.0643310546875 609.96942138671875 605.12725830078125 600.6435546875 595.09881591796875 589.4615478515625 585.03619384765625 580.11285400390625 573.83203125 567.73675537109375 562.2203369140625 557.10205078125 551.94537353515625 546.2255859375 540.75543212890625 536.14447021484375 531.45947265625 526.25982666015625 520.540283203125 514.21527099609375 508.408172607421875 504.38043212890625 499.69915771484375 493.615081787109375 487.43939208984375 481.008026123046875 475.83673095703125 470.8851318359375 466.204864501953125 461.712921142578125 456.39239501953125 450.208984375 444.728424072265625 441.128692626953125 439.552703857421875 439.292999267578125 439.133331298828125 438.33038330078125 436.1884765625 434.498687744140625 433.403594970703125 432.656829833984375 431.0692138671875 428.56549072265625 425.423858642578125 423.00872802734375 422.921539306640625 422.47149658203125 420.54217529296875 418.80596923828125 417.67486572265625 416.930419921875 416.056365966796875 415.491973876953125 415.5291748046875 415.050872802734375 414.0863037109375 412.978118896484375 411.96185302734375 411.093963623046875 410.8240966796875 411.703125 410.163055419921875 409.527862548828125 409.50994873046875 409.67962646484375 409.8214111328125 409.915618896484375 409.933837890625 409.86285400390625 409.7320556640625 409.425933837890625 408.926055908203125 408.357757568359375 407.959197998046875 408.042938232421875 408.416961669921875 408.72625732421875 408.655120849609375 408.26300048828125 408.10064697265625 407.882904052734375 407.356231689453125 406.4305419921875 405.305572509765625 404.101776123046875
917.2154541015625 909.3975830078125 902.95880126953125 898.6109619140625 895.47930908203125 892.5450439453125 890.2177734375 889.08831787109375 888.0816650390625 886.4593505859375 884.0562744140625 883.4615478515625 886.01312255859375 888.32373046875 887.7813720703125 885.181884765625 879.39044189453125 869.11322021484375 860.03607177734375 851.26092529296875 841.245849609375 833.833984375 829.53851318359375 826.7554931640625 823.5792236328125 818.238037109375 810.72894287109375 801.79083251953125 792.876708984375 787.1988525390625 781.9681396484375 774.8385009765625 769.86376953125 768.252197265625 764.09246826171875 757.35919189453125 755.57427978515625 755.53314208984375 753.25823974609375 748.3985595703125 741.7454833984375 735.95452880859375 730.83880615234375 726.26519775390625 723.48846435546875 722.045654296875 719.746337890625 714.68072509765625 708.17718505859375 703.85589599609375 699.588134765625 695.79339599609375 691.72607421875 687.2166748046875 682.49957275390625 677.460693359375 671.7623291015625 665.27447509765625 660.86810302734375 659.02972412109375 655.98956298828125 651.396240234375 645.92657470703125 639.78851318359375 633.93658447265625 628.65350341796875 623.547607421875 618.271728515625 612.75335693359375 607.35284423828125 602.77508544921875 597.88720703125 592.08935546875 587.2625732421875 582.9261474609375 577.6441650390625 571.4742431640625 565.5550537109375 560.049072265625 554.92279052734375 549.5208740234375 543.4639892578125 537.9068603515625 533.3048095703125 528.4989013671875 523.22833251953125 517.52508544921875 511.0216064453125 505.6177978515625 501.474334716796875 496.4813232421875 490.33587646484375 484.09759521484375 478.162017822265625 473.422332763671875 468.518829345703125 463.70947265625 459.378082275390625 454.875885009765625 449.338226318359375 443.558807373046875 439.2213134765625 436.8828125 436.2259521484375 436.7181396484375 436.457489013671875 433.759979248046875 431.4007568359375 431.130645751953125 430.571868896484375 429.730865478515625 427.412750244140625 424.080474853515625 420.60247802734375 420.28826904296875 420.80438232421875 419.89117431640625 418.572265625 417.228973388671875 415.862060546875 414.6751708984375 414.264984130859375 414.573089599609375 414.605072021484375 413.97503662109375 412.482269287109375 411.0814208984375 409.893218994140625 409.780975341796875 410.814483642578125 410.505950927734375 409.41876220703125 408.725677490234375 408.7872314453125 409.050262451171875 409.1287841796875 409.069732666015625 408.921478271484375 408.581939697265625 408.165435791015625 407.74224853515625 407.157012939453125 406.579071044921875 406.478790283203125 406.794586181640625 407.073760986328125 406.8372802734375 406.1968994140625 405.5780029296875 405.12939453125 404.74383544921875 403.689239501953125 402.4097900390625 400.679962158203125
915.189453125 908.30426025390625 901.21630859375 892.8514404296875 885.9713134765625 882.2972412109375 880.14154052734375 879.2008056640625 878.80584716796875 877.82281494140625 876.16180419921875 875.96331787109375 877.92071533203125 880.678955078125 882.33197021484375 881.1893310546875 875.46771240234375 864.966552734375 855.75115966796875 845.87896728515625 836.26104736328125 829.37896728515625 824.31201171875 820.43646240234375 817.589599609375 813.81634521484375 807.6646728515625 799.295166015625 789.3170166015625 781.78826904296875 777.78631591796875 771.56817626953125 764.1651611328125 761.06396484375 758.9635009765625 753.6104736328125 748.99468994140625 749.54278564453125 748.40899658203125 744.3106689453125 738.83489990234375 733.64013671875 728.19873046875 722.05609130859375 717.4454345703125 715.73126220703125 714.06427001953125 708.69232177734375 700.4091796875 697.2242431640625 695.09063720703125 692.53387451171875 688.466552734375 683.6484375 678.91339111328125 674.4210205078125 669.01495361328125 662.75543212890625 655.1279296875 650.87261962890625 648.23895263671875 645.226806640625 641.13543701171875 635.87347412109375 630.34844970703125 624.96075439453125 619.63531494140625 614.44842529296875 609.4251708984375 604.89410400390625 600.179443359375 594.38604736328125 589.04998779296875 585.1317138671875 581.3021240234375 575.16796875 568.71484375 562.834716796875 557.4068603515625 552.06658935546875 546.32208251953125 540.8013916015625 536.016845703125 531.40948486328125 526.39837646484375 520.8326416015625 514.682861328125 508.365081787109375 503.364715576171875 498.3414306640625 492.97467041015625 486.906158447265625 480.74456787109375 475.38397216796875 470.596221923828125 465.9755859375 461.084747314453125 456.79510498046875 452.695098876953125 447.69195556640625 442.245452880859375 438.143768310546875 435.42236328125 433.664825439453125 433.808441162109375 434.240997314453125 432.452911376953125 429.9072265625 428.570953369140625 428.385009765625 427.69793701171875 426.294097900390625 423.3040771484375 420.406005859375 419.314056396484375 419.29010009765625 418.8731689453125 417.94049072265625 416.797637939453125 415.57623291015625 414.11944580078125 413.579742431640625 414.197998046875 414.25341796875 413.674407958984375 412.369781494140625 410.626434326171875 409.65509033203125 409.68280029296875 410.640106201171875 410.58203125 409.635406494140625 408.87139892578125 408.286407470703125 408.044281005859375 408.00506591796875 407.943756103515625 407.746490478515625 407.4080810546875 406.945953369140625 406.48187255859375 405.9976806640625 405.37567138671875 404.990509033203125 405.21282958984375 405.3582763671875 405.018096923828125 404.145477294921875 403.28118896484375 402.671875 401.880615234375 400.843658447265625 399.56024169921875 397.894622802734375
913.25714111328125 907.57550048828125 900.5667724609375 891.00872802734375 880.9818115234375 873.72216796875 870.4649658203125 870.2701416015625 869.9735107421875 868.49688720703125 868.76007080078125 869.48443603515625 870.3858642578125 873.2425537109375 876.0501708984375 874.63665771484375 869.647216796875 862.3580322265625 854.7862548828125 845.83294677734375 836.15472412109375 828.3787841796875 821.84368896484375 815.99359130859375 811.65008544921875 808.50775146484375 804.2755126953125 796.77679443359375 786.92352294921875 777.74066162109375 771.30609130859375 766.486328125 761.23797607421875 756.21258544921875 753.783203125 750.1883544921875 745.1409912109375 741.0194091796875 740.1734619140625 738.25390625 734.2996826171875 729.5665283203125 724.2904052734375 718.72027587890625 713.61773681640625 709.79486083984375 706.60052490234375 701.83154296875 696.65191650390625 693.17718505859375 690.79119873046875 687.67626953125 683.61358642578125 679.31964111328125 675.3255615234375 670.99664306640625 665.98443603515625 659.42022705078125 651.85345458984375 645.6640625 641.50555419921875 638.89593505859375 635.89080810546875 631.52276611328125 626.5408935546875 621.13946533203125 615.3470458984375 609.765625 604.77410888671875 600.60308837890625 596.2216796875 590.5269775390625 586.433349609375 582.5687255859375 577.4979248046875 571.08282470703125 564.88934326171875 559.4189453125 554.2750244140625 549.21014404296875 543.89349365234375 538.8001708984375 534.20758056640625 529.19940185546875 523.2113037109375 516.808837890625 510.563812255859375 505.236663818359375 500.143890380859375 494.4002685546875 488.3365478515625 482.149688720703125 476.454742431640625 471.70513916015625 467.49755859375 463.296478271484375 459.11627197265625 455.219451904296875 451.16241455078125 446.457611083984375 441.37518310546875 437.2596435546875 434.179534912109375 431.620452880859375 431.056304931640625 432.316650390625 431.744873046875 429.30670166015625 427.00848388671875 426.058135986328125 425.339385986328125 424.608612060546875 422.69915771484375 420.2542724609375 418.791473388671875 418.114654541015625 417.67724609375 417.088897705078125 416.240692138671875 415.063690185546875 413.516510009765625 412.853546142578125 413.432586669921875 413.46917724609375 412.878173828125 412.51513671875 411.222564697265625 409.7669677734375 409.29168701171875 410.240325927734375 410.6439208984375 409.916046142578125 409.103271484375 408.38360595703125 407.877685546875 407.5093994140625 407.147125244140625 406.7611083984375 406.34552001953125 405.87274169921875 405.373260498046875 404.899627685546875 404.35595703125 403.875885009765625 403.851715087890625 403.63787841796875 403.204986572265625 402.141448974609375 400.94244384765625 400.073211669921875 399.186309814453125 398.2596435546875 396.85546875 395.24090576171875
910.4298095703125 904.83905029296875 896.56085205078125 887.33428955078125 878.1412353515625 870.4771728515625 865.3299560546875 861.6446533203125 859.22991943359375 859.1595458984375 859.401123046875 858.18231201171875 859.81201171875 865.40411376953125 869.90093994140625 868.351318359375 865.385498046875 859.97515869140625 853.58367919921875 844.77642822265625 835.74072265625 827.74444580078125 820.30084228515625 812.82989501953125 806.099853515625 802.0213623046875 799.27197265625 793.57794189453125 784.9364013671875 775.45123291015625 767.61602783203125 762.32080078125 756.51092529296875 752.36505126953125 749.82940673828125 744.9622802734375 740.37530517578125 736.35723876953125 733.247314453125 730.56280517578125 728.0897216796875 724.6962890625 720.33770751953125 715.7940673828125 710.3841552734375 704.66650390625 700.77392578125 697.61871337890625 694.0186767578125 689.9444580078125 685.9053955078125 681.9381103515625 677.8814697265625 674.30218505859375 670.64373779296875 666.87908935546875 662.2060546875 655.32275390625 648.746826171875 642.4912109375 636.8507080078125 633.55157470703125 631.0401611328125 627.31683349609375 622.721923828125 617.51739501953125 611.7423095703125 605.84637451171875 600.5010986328125 596.4307861328125 592.241943359375 587.065673828125 582.90057373046875 577.99530029296875 572.2451171875 566.18670654296875 560.6602783203125 555.67572021484375 550.96246337890625 546.3345947265625 541.55767822265625 536.90570068359375 532.38946533203125 527.2183837890625 521.03515625 514.426513671875 508.08233642578125 502.7513427734375 497.53912353515625 491.95050048828125 485.254791259765625 478.419891357421875 472.478851318359375 467.972503662109375 463.988311767578125 460.29931640625 456.912200927734375 453.531951904296875 449.625518798828125 445.031036376953125 440.506988525390625 436.7923583984375 433.615142822265625 430.5897216796875 429.106475830078125 430.20697021484375 430.54693603515625 428.7308349609375 426.094512939453125 424.107330322265625 423.088531494140625 422.664459228515625 421.5921630859375 419.750946044921875 418.282440185546875 417.18121337890625 416.627777099609375 416.15887451171875 415.385040283203125 414.177978515625 412.614593505859375 411.975189208984375 412.72186279296875 412.798431396484375 411.76861572265625 411.906036376953125 411.82427978515625 410.4013671875 409.29168701171875 409.46844482421875 410.3729248046875 410.036163330078125 409.297119140625 408.583282470703125 407.925323486328125 407.279632568359375 406.6611328125 406.18743896484375 405.78955078125 405.35137939453125 404.76263427734375 404.062896728515625 403.407501220703125 402.889984130859375 402.55743408203125 402.06256103515625 401.53851318359375 400.4951171875 398.90911865234375 397.62408447265625 396.664794921875 395.810516357421875 394.275299072265625 392.608428955078125
903.10845947265625 898.82965087890625 891.41766357421875 882.9853515625 874.90106201171875 867.96783447265625 862.22735595703125 856.0697021484375 850.68988037109375 849.49609375 849.17205810546875 848.5008544921875 851.68463134765625 858.722900390625 863.86163330078125 861.96954345703125 860.0380859375 856.0733642578125 850.974853515625 842.9544677734375 834.879150390625 827.0615234375 819.16717529296875 810.32171630859375 801.34686279296875 795.65155029296875 793.0242919921875 788.8863525390625 781.8280029296875 772.35919189453125 764.33404541015625 759.21954345703125 753.1075439453125 747.34613037109375 743.5970458984375 739.021484375 735.89324951171875 733.04541015625 728.67828369140625 724.45233154296875 721.44793701171875 719.0654296875 716.06292724609375 712.08935546875 706.309814453125 700.0250244140625 696.56805419921875 694.6234130859375 691.59228515625 687.13922119140625 682.0428466796875 677.6934814453125 673.6221923828125 669.2974853515625 665.63751220703125 662.3916015625 657.344482421875 651.10833740234375 645.72344970703125 639.9017333984375 633.45263671875 628.81396484375 625.63153076171875 622.18170166015625 618.12060546875 613.3748779296875 608.114990234375 602.5294189453125 597.00494384765625 592.77142333984375 588.57843017578125 583.74249267578125 578.49822998046875 572.44061279296875 566.6640625 561.18743896484375 556.33575439453125 551.81005859375 547.49542236328125 543.3096923828125 539.10467529296875 534.869384765625 530.41552734375 525.35504150390625 519.49908447265625 513.11102294921875 506.913604736328125 501.392791748046875 496.179901123046875 490.95916748046875 483.859375 476.249359130859375 469.76129150390625 465.2584228515625 461.127593994140625 457.629547119140625 454.645294189453125 451.59552001953125 447.90594482421875 443.405914306640625 439.477752685546875 436.393707275390625 433.407745361328125 430.260345458984375 427.73797607421875 427.346038818359375 427.607025146484375 426.847900390625 425.210479736328125 422.75958251953125 421.225677490234375 420.484893798828125 419.61187744140625 418.530364990234375 417.498992919921875 416.35418701171875 415.77825927734375 415.2479248046875 414.30810546875 412.997955322265625 411.471466064453125 411.031341552734375 412.1624755859375 412.320709228515625 410.669586181640625 410.715972900390625 411.79620361328125 411.28594970703125 409.902313232421875 408.7843017578125 409.5594482421875 409.653656005859375 409.19482421875 408.527587890625 407.7828369140625 407.040863037109375 406.38336181640625 405.97637939453125 405.680816650390625 405.308441162109375 404.6312255859375 403.595947265625 402.604736328125 401.93438720703125 401.344818115234375 400.778533935546875 400.107086181640625 399.159881591796875 397.358795166015625 395.62078857421875 394.340667724609375 393.38360595703125 391.695098876953125 389.793243408203125
895.412353515625 891.83087158203125 885.51873779296875 877.62774658203125 870.0599365234375 863.90191650390625 858.39544677734375 851.23394775390625 843.9752197265625 840.73992919921875 839.85723876953125 840.9378662109375 845.8369140625 851.8641357421875 856.6380615234375 854.9041748046875 852.5870361328125 850.2589111328125 847.14263916015625 840.91046142578125 834.0340576171875 826.344482421875 818.12579345703125 808.30804443359375 797.90789794921875 790.37274169921875 786.20318603515625 782.814208984375 777.37945556640625 768.05450439453125 760.0758056640625 756.10919189453125 750.596435546875 742.31500244140625 737.0294189453125 733.09771728515625 730.9490966796875 729.173828125 725.38079833984375 720.3212890625 715.6845703125 712.82586669921875 710.3443603515625 706.6597900390625 701.20904541015625 695.82989501953125 693.24493408203125 691.70770263671875 688.6497802734375 684.21533203125 679.2642822265625 675.03387451171875 670.54852294921875 664.160400390625 660.1978759765625 657.07220458984375 651.832763671875 647.12939453125 642.71612548828125 637.16021728515625 630.81298828125 625.10650634765625 620.332763671875 616.259765625 612.4757080078125 608.35968017578125 603.9512939453125 599.164306640625 593.95904541015625 589.5198974609375 585.20660400390625 580.22125244140625 573.90673828125 567.553955078125 562.10784912109375 557.055419921875 552.4564208984375 548.19720458984375 544.06134033203125 540.17962646484375 536.4913330078125 532.5767822265625 528.17041015625 523.29193115234375 517.749755859375 511.68218994140625 506.09869384765625 500.956207275390625 495.822174072265625 490.519256591796875 483.1064453125 475.093292236328125 468.54193115234375 464.040771484375 459.6824951171875 455.812713623046875 452.669586181640625 449.56842041015625 446.024688720703125 441.82415771484375 438.325469970703125 435.646392822265625 432.99200439453125 430.023712158203125 426.61798095703125 423.90301513671875 422.788238525390625 422.91851806640625 423.612060546875 421.928131103515625 419.864593505859375 418.095123291015625 416.83367919921875 416.469635009765625 416.285308837890625 415.489715576171875 414.992828369140625 414.367584228515625 413.21929931640625 411.773956298828125 410.38153076171875 410.25537109375 411.6451416015625 411.825714111328125 409.980224609375 409.91827392578125 410.95806884765625 411.77349853515625 410.50830078125 409.026123046875 408.233978271484375 408.4473876953125 408.4520263671875 408.056671142578125 407.37335205078125 406.693359375 406.16461181640625 405.813201904296875 405.4761962890625 405.149139404296875 404.546630859375 403.47540283203125 402.24176025390625 401.156982421875 400.469940185546875 399.89776611328125 398.898162841796875 397.56689453125 396.130035400390625 394.238128662109375 392.35101318359375 390.9937744140625 388.850555419921875 386.360260009765625
889.67236328125 884.92279052734375 878.63690185546875 871.1884765625 863.69866943359375 857.64208984375 852.37701416015625 845.403076171875 838.2708740234375 833.817138671875 832.2855224609375 834.18896484375 840.388427734375 843.8226318359375 847.55322265625 846.924560546875 843.60357666015625 843.1494140625 842.6654052734375 838.8843994140625 833.4974365234375 825.74151611328125 817.08624267578125 806.8260498046875 796.06475830078125 786.91705322265625 780.0924072265625 776.35882568359375 772.0440673828125 762.9127197265625 754.4307861328125 751.313232421875 746.996826171875 739.29364013671875 733.67486572265625 727.8841552734375 724.44189453125 723.49664306640625 721.09033203125 716.70648193359375 711.62274169921875 706.3314208984375 702.2855224609375 699.2396240234375 695.75433349609375 692.048095703125 689.5491943359375 688.003173828125 684.70635986328125 680.54296875 676.3260498046875 672.1444091796875 666.32196044921875 658.2293701171875 653.60076904296875 649.96649169921875 646.7376708984375 643.34527587890625 639.57977294921875 634.36578369140625 628.874755859375 623.6817626953125 617.58587646484375 611.19818115234375 606.278564453125 602.7105712890625 599.1829833984375 594.72064208984375 590.26220703125 586.0946044921875 581.73638916015625 576.2408447265625 570.46502685546875 565.3267822265625 560.122802734375 555.15875244140625 550.013427734375 545.52862548828125 541.20782470703125 537.3455810546875 533.85723876953125 530.0892333984375 525.6092529296875 520.531494140625 514.94744873046875 509.38006591796875 504.8052978515625 499.934112548828125 494.622344970703125 488.92657470703125 480.495452880859375 472.71319580078125 467.313568115234375 462.891143798828125 458.532928466796875 454.282440185546875 450.918060302734375 447.607025146484375 444.188568115234375 440.7159423828125 437.53985595703125 434.66839599609375 431.997406005859375 429.4212646484375 426.553070068359375 423.681854248046875 421.521759033203125 419.919464111328125 420.43353271484375 420.632843017578125 418.717559814453125 416.332305908203125 414.970672607421875 414.740234375 414.710113525390625 414.55255126953125 413.921661376953125 413.0428466796875 412.124298095703125 411.008514404296875 409.927154541015625 410.122283935546875 411.5557861328125 411.6563720703125 409.864227294921875 409.421661376953125 410.10601806640625 410.900634765625 410.940399169921875 409.820098876953125 408.41217041015625 407.863555908203125 407.379638671875 407.1839599609375 406.931854248046875 406.424560546875 405.97332763671875 405.649993896484375 405.403228759765625 405.148284912109375 404.43328857421875 403.1629638671875 401.803802490234375 400.619232177734375 399.578826904296875 398.255615234375 397.201141357421875 395.946563720703125 394.595672607421875 393.009979248046875 391.196502685546875 388.562255859375 385.710113525390625 382.97802734375
883.24896240234375 876.0853271484375 869.87481689453125 864.4346923828125 857.9522705078125 851.13238525390625 845.65087890625 840.17559814453125 833.7603759765625 828.28448486328125 824.733642578125 825.6839599609375 832.40557861328125 836.2222900390625 838.33648681640625 838.8800048828125 836.9964599609375 837.140380859375 838.0001220703125 835.74560546875 832.33306884765625 825.45977783203125 816.61993408203125 806.2247314453125 795.28253173828125 785.7349853515625 778.13189697265625 772.735595703125 766.7425537109375 756.78314208984375 749.68487548828125 742.64654541015625 740.20391845703125 736.3487548828125 731.351318359375 725.375 719.24072265625 716.58941650390625 713.61590576171875 710.4293212890625 706.2352294921875 701.21478271484375 696.72314453125 693.34051513671875 690.53778076171875 687.05072021484375 683.62200927734375 682.21820068359375 679.77813720703125 675.78240966796875 671.767822265625 667.5533447265625 661.361083984375 654.19219970703125 648.86883544921875 644.118408203125 641.37744140625 639.06121826171875 635.59033203125 631.21893310546875 626.3751220703125 621.17816162109375 615.37115478515625 609.069091796875 603.014404296875 597.844970703125 593.38238525390625 588.939697265625 584.8206787109375 581.2353515625 578.1549072265625 573.6380615234375 568.39691162109375 563.28009033203125 557.93798828125 552.43035888671875 547.77947998046875 543.472412109375 539.3035888671875 535.32489013671875 531.18695068359375 526.248291015625 521.22528076171875 516.54541015625 511.70892333984375 507.134246826171875 502.895477294921875 497.971466064453125 491.98992919921875 485.3687744140625 477.60626220703125 470.55987548828125 465.747833251953125 461.16241455078125 456.59210205078125 452.51556396484375 449.090911865234375 445.773712158203125 442.436065673828125 439.3558349609375 436.54443359375 433.864898681640625 431.245391845703125 428.841888427734375 426.696868896484375 424.449798583984375 422.218780517578125 420.43597412109375 419.778533935546875 417.442352294921875 416.23370361328125 415.12420654296875 414.3873291015625 413.99053955078125 413.880706787109375 413.79388427734375 413.0433349609375 411.99566650390625 410.895782470703125 409.942596435546875 409.47210693359375 410.075408935546875 411.42327880859375 411.51141357421875 409.8526611328125 409.1099853515625 409.399749755859375 410.1151123046875 410.659271240234375 410.168243408203125 409.028533935546875 408.4111328125 407.83721923828125 407.2984619140625 406.7916259765625 406.2867431640625 405.869415283203125 405.55157470703125 405.2872314453125 404.9207763671875 404.086029052734375 402.7994384765625 401.428955078125 400.029388427734375 398.524200439453125 396.865203857421875 395.49542236328125 394.264312744140625 392.99493408203125 391.600006103515625 389.285980224609375 386.140625 382.7862548828125 379.935028076171875
879.54388427734375 871.357666015625 863.45147705078125 856.431884765625 850.171630859375 845.3028564453125 840.72760009765625 834.90887451171875 828.62347412109375 822.8516845703125 818.04937744140625 818.13690185546875 821.3861083984375 825.180908203125 827.71246337890625 829.26318359375 829.545166015625 829.56390380859375 829.67901611328125 828.2567138671875 828.140869140625 823.5887451171875 815.760986328125 806.697265625 796.10113525390625 785.0634765625 775.19354248046875 766.985595703125 758.9615478515625 749.13299560546875 743.11083984375 736.3575439453125 732.1048583984375 731.413818359375 727.2415771484375 721.21875 714.193359375 709.88592529296875 707.6380615234375 704.76531982421875 700.404052734375 695.81353759765625 691.526611328125 687.53021240234375 683.37994384765625 679.69097900390625 677.73760986328125 676.48504638671875 674.38580322265625 670.9266357421875 667.637451171875 663.6572265625 658.34307861328125 652.2166748046875 647.03350830078125 642.200439453125 638.28314208984375 634.97564697265625 631.41326904296875 626.9261474609375 622.3507080078125 617.64642333984375 612.5509033203125 606.94097900390625 601.1112060546875 595.75506591796875 590.69256591796875 585.254638671875 580.099365234375 576.81719970703125 574.18963623046875 570.4644775390625 565.17864990234375 560.00872802734375 554.9010009765625 549.85052490234375 545.58905029296875 541.4571533203125 537.1209716796875 532.73370361328125 527.6820068359375 522.07421875 516.88092041015625 512.43084716796875 508.453460693359375 504.776092529296875 500.627227783203125 495.047454833984375 488.49237060546875 481.1822509765625 474.763519287109375 468.540771484375 463.95135498046875 459.31390380859375 454.67340087890625 450.57684326171875 447.19805908203125 443.99066162109375 440.993682861328125 438.35101318359375 435.888092041015625 433.489990234375 431.233917236328125 429.229766845703125 427.433074951171875 425.526336669921875 423.485748291015625 421.90679931640625 420.186553955078125 417.10400390625 415.028533935546875 414.41131591796875 413.88555908203125 413.364044189453125 413.1656494140625 413.063018798828125 412.2315673828125 411.209930419921875 410.248809814453125 409.301177978515625 409.122406005859375 410.0216064453125 411.232452392578125 411.340087890625 409.8887939453125 408.907501220703125 408.74945068359375 409.467803955078125 410.1702880859375 410.229736328125 409.507659912109375 408.890289306640625 408.27587890625 407.57470703125 406.90081787109375 406.413421630859375 406.01812744140625 405.671112060546875 405.290985107421875 404.700225830078125 403.72174072265625 402.467620849609375 401.163787841796875 399.6676025390625 397.810150146484375 395.906890869140625 394.129180908203125 392.598846435546875 391.29620361328125 389.320465087890625 386.356658935546875 382.804473876953125 379.888214111328125 377.097808837890625
875.313720703125 868.49530029296875 861.08984375 852.72247314453125 844.82293701171875 838.65606689453125 833.52490234375 828.546142578125 823.28289794921875 817.37115478515625 811.8624267578125 811.44720458984375 810.6846923828125 813.6192626953125 816.2015380859375 817.457275390625 818.17095947265625 818.45111083984375 819.68963623046875 819.44757080078125 821.413330078125 819.983154296875 814.26312255859375 806.6727294921875 797.08538818359375 785.85870361328125 774.32550048828125 763.2315673828125 752.87847900390625 742.3416748046875 737.3026123046875 731.82647705078125 725.7491455078125 723.783447265625 719.2779541015625 713.411865234375 707.47210693359375 701.8101806640625 699.28955078125 697.24713134765625 692.9571533203125 688.17120361328125 683.99151611328125 680.40423583984375 676.39178466796875 672.9017333984375 671.59918212890625 670.6173095703125 669.4263916015625 666.6973876953125 664.31719970703125 660.92626953125 656.7572021484375 651.70318603515625 646.4149169921875 640.973388671875 636.2227783203125 632.12713623046875 627.28375244140625 622.17138671875 618.0635986328125 614.1566162109375 609.48162841796875 604.23468017578125 599.0272216796875 594.0531005859375 588.7696533203125 582.68804931640625 576.70501708984375 572.71832275390625 569.7611083984375 565.88238525390625 560.983642578125 556.18621826171875 551.57550048828125 547.1541748046875 543.10418701171875 539.08782958984375 534.6253662109375 529.98736572265625 524.76336669921875 519.01446533203125 513.30364990234375 508.593109130859375 505.202789306640625 501.88580322265625 497.35968017578125 491.156951904296875 484.27984619140625 476.920379638671875 471.504608154296875 466.42254638671875 461.914154052734375 456.90838623046875 452.260650634765625 448.372314453125 445.41583251953125 442.523284912109375 440.0474853515625 437.91107177734375 435.724853515625 433.5833740234375 431.7088623046875 430.000152587890625 428.291473388671875 426.472503662109375 424.508514404296875 422.829498291015625 420.556976318359375 417.854095458984375 414.95556640625 414.22723388671875 413.56085205078125 412.95489501953125 412.599578857421875 412.33905029296875 411.567352294921875 410.74627685546875 410.008544921875 408.9554443359375 408.854766845703125 409.949737548828125 411.01556396484375 411.088043212890625 409.84814453125 408.764007568359375 408.2384033203125 408.889801025390625 409.550384521484375 410.01324462890625 409.64990234375 409.0458984375 408.435943603515625 407.778717041015625 407.13604736328125 406.694305419921875 406.295989990234375 405.8736572265625 405.37567138671875 404.598846435546875 403.4990234375 402.266357421875 401.01513671875 399.496337890625 397.462554931640625 395.37213134765625 393.278350830078125 391.29254150390625 389.480438232421875 386.388580322265625 382.984588623046875 379.2347412109375 377.095977783203125 374.448455810546875
871.259765625 865.0985107421875 858.3155517578125 849.98382568359375 841.38714599609375 833.44732666015625 826.55035400390625 821.29388427734375 817.00262451171875 811.53076171875 805.65704345703125 804.95184326171875 801.40032958984375 802.5350341796875 804.63067626953125 805.18048095703125 805.59149169921875 805.1087646484375 807.12884521484375 808.74420166015625 811.916015625 813.00732421875 810.81195068359375 806.0225830078125 798.26519775390625 787.69769287109375 775.10113525390625 761.89752197265625 749.626220703125 737.85589599609375 731.95208740234375 727.18597412109375 719.955322265625 714.9368896484375 709.938720703125 704.3956298828125 700.27166748046875 693.8243408203125 689.331787109375 687.16998291015625 683.7574462890625 679.51837158203125 675.69805908203125 672.73785400390625 669.53240966796875 666.29010009765625 664.864990234375 664.836181640625 664.91802978515625 662.6929931640625 660.63232421875 658.2445068359375 655.15020751953125 651.179931640625 645.7689208984375 639.5078125 634.23016357421875 629.6295166015625 623.7537841796875 618.0159912109375 613.76080322265625 609.955078125 605.437255859375 600.62176513671875 596.1322021484375 591.6065673828125 586.38330078125 580.2789306640625 574.02105712890625 568.70977783203125 564.7618408203125 560.51202392578125 556.4195556640625 552.34619140625 548.274169921875 544.30340576171875 540.3321533203125 536.358154296875 532.0479736328125 527.5018310546875 522.76336669921875 517.1043701171875 510.622955322265625 505.235595703125 501.804351806640625 498.5115966796875 493.65625 487.123443603515625 480.40716552734375 473.52313232421875 468.155303955078125 463.883331298828125 459.491546630859375 453.825439453125 449.365570068359375 445.958648681640625 443.523193359375 441.180328369140625 439.3460693359375 437.78668212890625 435.934814453125 434.0364990234375 432.319549560546875 430.60504150390625 428.865325927734375 427.003265380859375 424.9014892578125 422.729644775390625 420.432708740234375 417.899078369140625 415.38433837890625 414.432403564453125 413.575714111328125 412.882965087890625 412.298797607421875 411.719757080078125 411.1480712890625 410.579620361328125 409.806304931640625 408.620941162109375 408.6456298828125 409.897796630859375 410.814910888671875 410.73858642578125 409.6468505859375 408.604736328125 407.90570068359375 408.32940673828125 408.8466796875 409.555908203125 409.47149658203125 409.0050048828125 408.540008544921875 407.917327880859375 407.34844970703125 406.915191650390625 406.46380615234375 405.92767333984375 405.4156494140625 404.63543701171875 403.49591064453125 402.246246337890625 400.926788330078125 399.284393310546875 397.1995849609375 395.095489501953125 392.93609619140625 390.745635986328125 387.639495849609375 383.718170166015625 380.268585205078125 377.144927978515625 374.669647216796875 372.080718994140625
868.94451904296875 861.062744140625 853.5999755859375 846.24322509765625 838.363525390625 829.90362548828125 821.649169921875 814.77667236328125 810.04705810546875 805.0946044921875 799.3768310546875 797.84088134765625 793.773193359375 792.68060302734375 793.81024169921875 793.7724609375 793.9610595703125 791.9686279296875 792.974609375 795.46923828125 799.1605224609375 801.85736083984375 803.8192138671875 803.31060791015625 798.67584228515625 789.63946533203125 776.8406982421875 762.8851318359375 749.58984375 736.88092041015625 728.1248779296875 722.35650634765625 714.51165771484375 707.70263671875 702.75750732421875 697.3477783203125 693.957763671875 687.50018310546875 680.248291015625 675.91424560546875 673.65594482421875 671.24847412109375 668.3436279296875 665.4580078125 662.340087890625 659.02215576171875 657.6048583984375 659.2628173828125 660.27020263671875 658.03851318359375 655.22882080078125 653.89178466796875 651.860107421875 649.05255126953125 644.15704345703125 637.89910888671875 631.8004150390625 626.20709228515625 621.13934326171875 615.18170166015625 609.240234375 603.907470703125 599.59686279296875 596.063232421875 592.4158935546875 588.1815185546875 583.1707763671875 577.3179931640625 570.95550537109375 564.7100830078125 559.42333984375 555.99188232421875 552.39520263671875 548.89715576171875 545.13330078125 541.4951171875 537.5614013671875 533.58502197265625 529.75592041015625 525.55029296875 520.8629150390625 515.03448486328125 508.42193603515625 502.39447021484375 498.0467529296875 495.254302978515625 491.35955810546875 484.630401611328125 478.881256103515625 472.369720458984375 466.06884765625 460.563568115234375 456.388641357421875 450.508392333984375 446.922760009765625 443.611053466796875 440.67681884765625 439.016998291015625 437.9737548828125 437.0782470703125 436.049163818359375 434.559906005859375 432.801483154296875 431.0556640625 429.15771484375 427.07818603515625 425.01348876953125 422.980804443359375 420.770263671875 418.384552001953125 415.937042236328125 414.446319580078125 413.57318115234375 412.810577392578125 412.215911865234375 411.57489013671875 410.9840087890625 410.41558837890625 409.493255615234375 408.301177978515625 408.610595703125 409.990325927734375 410.65386962890625 410.414337158203125 409.43310546875 408.2174072265625 407.385772705078125 408.029144287109375 408.6719970703125 409.2340087890625 409.226593017578125 408.760101318359375 408.366729736328125 407.887908935546875 407.473236083984375 406.95831298828125 406.46240234375 405.925994873046875 405.41424560546875 404.674560546875 403.497406005859375 402.06005859375 400.568267822265625 398.872344970703125 396.78753662109375 394.70013427734375 392.605224609375 390.369171142578125 386.866973876953125 382.40753173828125 378.342742919921875 375.47906494140625 372.558258056640625 370.20361328125
870.2918701171875 858.5050048828125 848.6968994140625 841.49188232421875 833.92828369140625 826.299072265625 819.4683837890625 811.6778564453125 803.8038330078125 798.0501708984375 793.50054931640625 789.3614501953125 787.1954345703125 784.59649658203125 784.4033203125 783.66851806640625 783.73773193359375 782.34576416015625 781.16705322265625 779.27130126953125 782.30950927734375 787.26763916015625 791.39434814453125 794.599609375 795.34051513671875 790.28955078125 779.4697265625 766.3408203125 752.7960205078125 740.67620849609375 731.0020751953125 721.83001708984375 713.30560302734375 706.9471435546875 701.38629150390625 694.76751708984375 688.54815673828125 682.81402587890625 676.2105712890625 669.55023193359375 665.416259765625 662.359130859375 660.03631591796875 657.8990478515625 655.15899658203125 652.3043212890625 651.36273193359375 653.13153076171875 653.6654052734375 651.55584716796875 648.3131103515625 646.01611328125 645.8988037109375 644.78460693359375 641.19976806640625 636.3170166015625 630.46881103515625 623.57666015625 617.3614501953125 611.37445068359375 604.8699951171875 598.6446533203125 594.1925048828125 591.2686767578125 588.16790771484375 584.14312744140625 579.73443603515625 575.0699462890625 569.4580078125 562.82635498046875 557.5220947265625 553.87042236328125 550.27374267578125 546.85247802734375 543.164794921875 539.19549560546875 534.81195068359375 530.79150390625 527.15093994140625 523.3792724609375 518.52362060546875 512.63104248046875 506.519317626953125 500.93939208984375 496.49749755859375 493.089874267578125 489.32958984375 484.278076171875 478.9010009765625 473.027557373046875 466.84039306640625 459.728271484375 454.47576904296875 449.645416259765625 446.457550048828125 443.641510009765625 440.930511474609375 437.62847900390625 435.818206787109375 434.86029052734375 434.25103759765625 433.800537109375 432.833831787109375 431.19024658203125 429.239349365234375 427.153106689453125 425.071929931640625 422.998687744140625 420.825714111328125 418.22711181640625 415.58154296875 414.35748291015625 413.564605712890625 412.73773193359375 412.0706787109375 411.411773681640625 410.765869140625 410.176025390625 409.057647705078125 408.0418701171875 408.612640380859375 409.966796875 410.446197509765625 409.935272216796875 408.79779052734375 407.62506103515625 407.117340087890625 407.78179931640625 408.436981201171875 408.982208251953125 408.982940673828125 408.51513671875 408.130279541015625 407.72808837890625 407.846771240234375 407.14862060546875 406.291534423828125 405.730133056640625 405.27197265625 404.427093505859375 403.14422607421875 401.71044921875 400.1583251953125 398.2781982421875 396.063201904296875 393.863677978515625 391.638763427734375 388.8319091796875 384.413726806640625 379.80718994140625 375.38739013671875 372.017486572265625 369.419921875 367.673126220703125
874.6031494140625 862.73968505859375 851.79656982421875 842.2701416015625 833.6678466796875 825.40380859375 817.0374755859375 808.87042236328125 801.08917236328125 793.888671875 788.85943603515625 784.4844970703125 780.97454833984375 777.89300537109375 775.47064208984375 774.1966552734375 772.63543701171875 770.0948486328125 768.7445068359375 768.98956298828125 770.82122802734375 773.5843505859375 777.1722412109375 780.40447998046875 782.380859375 782.171630859375 778.15045166015625 769.4381103515625 757.1954345703125 745.07269287109375 736.06243896484375 727.6981201171875 718.51470947265625 711.1923828125 703.90374755859375 697.5653076171875 691.1419677734375 685.60321044921875 679.171142578125 671.4053955078125 664.89556884765625 659.26019287109375 654.25640869140625 650.8658447265625 648.19439697265625 645.1029052734375 643.93572998046875 645.8397216796875 646.30841064453125 644.34771728515625 641.24468994140625 639.12384033203125 638.0313720703125 637.7938232421875 636.24798583984375 633.37103271484375 628.32196044921875 622.1011962890625 614.35943603515625 608.0897216796875 602.36907958984375 596.8492431640625 591.81005859375 587.21063232421875 582.81097412109375 578.81024169921875 575.45989990234375 571.60107421875 566.25714111328125 559.65802001953125 554.86334228515625 551.55511474609375 548.151611328125 544.74456787109375 541.18951416015625 536.8935546875 532.48089599609375 528.1376953125 524.59271240234375 520.7755126953125 515.57275390625 509.914764404296875 504.490020751953125 499.4945068359375 495.26007080078125 491.479156494140625 487.535797119140625 483.10223388671875 478.319183349609375 472.91754150390625 466.942718505859375 460.59539794921875 454.853759765625 449.341064453125 444.98223876953125 441.89495849609375 439.710784912109375 436.736724853515625 434.182220458984375 432.666290283203125 432.121429443359375 432.175537109375 431.9234619140625 430.7952880859375 429.035400390625 426.989654541015625 424.904388427734375 422.819122314453125 420.647125244140625 417.94342041015625 415.3267822265625 413.41790771484375 412.63433837890625 412.094207763671875 411.592803955078125 411.005615234375 410.43817138671875 409.72332763671875 408.467010498046875 407.765960693359375 408.617706298828125 409.881500244140625 410.1441650390625 409.38470458984375 408.06494140625 406.986907958984375 406.91943359375 407.532257080078125 408.141143798828125 408.687255859375 408.738983154296875 408.27020263671875 407.885650634765625 407.8603515625 408.255035400390625 407.55914306640625 406.477386474609375 405.59490966796875 404.796539306640625 403.806060791015625 402.57806396484375 401.25421142578125 399.68780517578125 397.61737060546875 395.309539794921875 393.04681396484375 390.62646484375 387.10760498046875 382.370330810546875 377.635986328125 372.90496826171875 367.76531982421875 365.74395751953125 364.4874267578125
879.4705810546875 868.4208984375 857.1243896484375 848.1099853515625 840.5194091796875 831.92132568359375 822.5499267578125 814.27825927734375 806.3365478515625 797.11761474609375 788.09228515625 780.6759033203125 775.6182861328125 770.88189697265625 767.66973876953125 765.374755859375 763.1680908203125 760.27703857421875 758.4752197265625 759.22491455078125 760.839111328125 761.29974365234375 762.31494140625 764.832763671875 768.536376953125 771.302978515625 771.34466552734375 767.89349365234375 759.4202880859375 748.77069091796875 740.70587158203125 732.82806396484375 724.59564208984375 716.16571044921875 708.04345703125 700.8448486328125 694.07574462890625 687.43426513671875 679.8388671875 671.6058349609375 664.73858642578125 658.4383544921875 652.68499755859375 647.6510009765625 642.94207763671875 638.53070068359375 636.378173828125 637.779541015625 639.1385498046875 638.6893310546875 636.62835693359375 634.5849609375 631.87078857421875 629.39984130859375 628.24896240234375 627.24945068359375 624.3741455078125 619.6585693359375 612.001220703125 604.521728515625 598.74560546875 594.19866943359375 589.7515869140625 584.9119873046875 579.99560546875 575.60546875 571.43829345703125 566.4873046875 561.4263916015625 555.54718017578125 550.8836669921875 546.85662841796875 544.7607421875 541.59063720703125 539.1082763671875 534.91424560546875 530.85247802734375 526.037353515625 521.47601318359375 516.82244873046875 511.857635498046875 507.009429931640625 502.226318359375 497.540496826171875 493.223175048828125 489.200408935546875 485.279266357421875 481.09124755859375 476.902008056640625 472.21136474609375 466.929779052734375 461.690093994140625 455.76702880859375 449.462890625 443.980072021484375 439.865020751953125 437.407623291015625 435.15472412109375 432.609130859375 430.529083251953125 429.812835693359375 430.266693115234375 430.607391357421875 429.89093017578125 428.281280517578125 426.326934814453125 424.349761962890625 422.342681884765625 420.272857666015625 417.82977294921875 415.406585693359375 412.604766845703125 411.36737060546875 411.220184326171875 410.980133056640625 410.409454345703125 409.869781494140625 409.05340576171875 407.853729248046875 407.341705322265625 408.269683837890625 409.436798095703125 409.536590576171875 408.640411376953125 407.277313232421875 406.374481201171875 406.678375244140625 407.253570556640625 407.85333251953125 408.399810791015625 408.495330810546875 408.0252685546875 407.809906005859375 408.160614013671875 408.628570556640625 408.072479248046875 406.966827392578125 405.82684326171875 404.527923583984375 403.181549072265625 401.922393798828125 400.63726806640625 398.974578857421875 396.7861328125 394.52642822265625 392.305511474609375 389.7340087890625 385.553436279296875 380.893157958984375 375.97369384765625 370.877655029296875 363.64910888671875 362.17120361328125 361.447784423828125
882.8077392578125 873.47491455078125 861.9833984375 853.357666015625 847.776611328125 840.3173828125 830.74591064453125 822.11199951171875 813.56298828125 803.2928466796875 791.02069091796875 778.76080322265625 771.4312744140625 765.37860107421875 760.84716796875 757.01715087890625 754.4053955078125 752.076416015625 749.75250244140625 748.98553466796875 750.41595458984375 750.64324951171875 750.06048583984375 750.9515380859375 754.60040283203125 758.5074462890625 760.64361572265625 761.20001220703125 757.9681396484375 751.16070556640625 744.3299560546875 736.93218994140625 729.68896484375 721.067626953125 713.30731201171875 705.3148193359375 697.74566650390625 690.28326416015625 682.32305908203125 674.4537353515625 667.77679443359375 660.9886474609375 653.97247314453125 647.070556640625 640.8394775390625 635.5230712890625 631.5928955078125 630.84112548828125 632.82867431640625 634.0443115234375 633.05889892578125 630.623291015625 626.7430419921875 622.1451416015625 619.63165283203125 619.18017578125 618.76617431640625 616.1136474609375 610.130126953125 602.3270263671875 595.81011962890625 590.729248046875 586.72003173828125 582.7137451171875 578.14459228515625 573.626708984375 568.4039306640625 562.0826416015625 556.95953369140625 551.8785400390625 546.5999755859375 541.56005859375 539.69146728515625 537.1104736328125 536.2115478515625 533.3900146484375 529.9432373046875 524.66888427734375 518.40081787109375 512.42620849609375 507.89874267578125 503.9149169921875 499.696929931640625 495.313018798828125 490.820587158203125 486.508880615234375 482.3638916015625 477.961669921875 474.25592041015625 470.602386474609375 466.5670166015625 462.158966064453125 456.21044921875 449.55303955078125 443.73065185546875 438.602020263671875 435.068817138671875 432.746551513671875 430.75347900390625 428.53948974609375 427.427581787109375 427.949127197265625 428.691619873046875 428.305145263671875 426.857757568359375 425.102294921875 423.338043212890625 421.490692138671875 419.6446533203125 417.70086669921875 415.554290771484375 412.14007568359375 410.16082763671875 410.371337890625 410.6334228515625 409.965240478515625 409.226654052734375 408.416778564453125 407.46099853515625 406.83697509765625 407.463348388671875 408.464202880859375 408.5025634765625 407.651336669921875 406.470245361328125 405.881317138671875 406.3856201171875 406.95458984375 407.595123291015625 408.1412353515625 408.252044677734375 407.809906005859375 407.942779541015625 408.46575927734375 408.966461181640625 408.5782470703125 407.626861572265625 406.473175048828125 404.781951904296875 402.883880615234375 401.344268798828125 399.875396728515625 397.93798828125 395.709747314453125 393.601715087890625 391.459747314453125 388.708648681640625 384.03497314453125 379.325286865234375 374.22259521484375 368.196441650390625 360.603363037109375 359.525299072265625 359.5328369140625
884.8328857421875 877.84002685546875 866.3712158203125 857.21295166015625 852.51702880859375 846.37774658203125 837.39971923828125 828.51397705078125 819.589599609375 809.58319091796875 796.5013427734375 780.42425537109375 770.29901123046875 762.902099609375 756.71435546875 751.20819091796875 747.2274169921875 744.53436279296875 741.8736572265625 739.448974609375 740.0928955078125 741.3927001953125 740.88836669921875 739.96197509765625 741.52716064453125 744.91357421875 748.0469970703125 750.68157958984375 751.7747802734375 749.952880859375 745.4549560546875 739.262939453125 732.89801025390625 725.4317626953125 718.80853271484375 711.207275390625 702.69232177734375 694.7938232421875 687.592041015625 680.4307861328125 673.69769287109375 666.24090576171875 657.3399658203125 648.617431640625 642.2115478515625 637.300537109375 631.6143798828125 627.19500732421875 627.6455078125 628.77581787109375 628.2183837890625 625.2972412109375 621.4342041015625 617.113037109375 612.609375 610.93988037109375 612.0228271484375 611.46710205078125 608.07183837890625 602.12823486328125 595.005859375 587.453369140625 582.37188720703125 578.8145751953125 574.78155517578125 570.97735595703125 566.47918701171875 560.32061767578125 554.49609375 549.6357421875 543.40362548828125 538.2669677734375 533.9197998046875 531.84185791015625 531.92816162109375 531.89019775390625 529.2503662109375 523.8726806640625 516.28570556640625 509.151641845703125 504.45281982421875 500.626922607421875 496.891876220703125 493.1629638671875 488.837738037109375 484.081787109375 478.91815185546875 473.631561279296875 470.164031982421875 467.55108642578125 465.0452880859375 461.509857177734375 455.712371826171875 448.99188232421875 443.56988525390625 438.531768798828125 433.970947265625 430.26190185546875 428.4461669921875 426.8177490234375 425.048248291015625 424.60052490234375 425.432159423828125 425.745849609375 424.81195068359375 423.44476318359375 421.892181396484375 420.221466064453125 418.612945556640625 416.906097412109375 415.027587890625 411.242950439453125 409.03619384765625 409.5958251953125 411.109375 410.318695068359375 409.063140869140625 408.36614990234375 407.64013671875 406.6165771484375 406.520782470703125 407.053314208984375 407.093109130859375 406.51824951171875 405.720428466796875 405.660308837890625 406.20806884765625 406.70037841796875 407.272125244140625 407.821044921875 408.0087890625 407.76605224609375 408.2259521484375 408.792144775390625 409.35699462890625 409.102569580078125 408.471649169921875 406.87457275390625 404.809661865234375 402.83514404296875 401.141937255859375 399.2662353515625 396.9263916015625 394.568634033203125 392.296722412109375 389.900726318359375 386.217864990234375 381.3035888671875 376.317626953125 371.298980712890625 361.347412109375 359.744049072265625 359.280670166015625 359.158294677734375
886.25970458984375 881.616943359375 870.81402587890625 860.39495849609375 853.5667724609375 847.01336669921875 839.06207275390625 830.69744873046875 822.6107177734375 813.922607421875 802.5908203125 787.07904052734375 774.179443359375 764.39935302734375 757.2054443359375 750.38287353515625 743.23333740234375 736.941650390625 734.24896240234375 732.7906494140625 731.91534423828125 732.9188232421875 732.92755126953125 731.29132080078125 730.42633056640625 731.99493408203125 735.64154052734375 739.0440673828125 740.52215576171875 741.80255126953125 741.8697509765625 738.38323974609375 734.1512451171875 728.80902099609375 723.08575439453125 717.6087646484375 708.82733154296875 698.91650390625 691.1624755859375 683.44744873046875 676.8388671875 670.64215087890625 663.52191162109375 653.5802001953125 645.72283935546875 642.05340576171875 636.69915771484375 629.107177734375 623.23394775390625 620.08935546875 619.34393310546875 617.40606689453125 615.05908203125 611.81549072265625 607.47198486328125 604.0885009765625 604.89678955078125 604.9583740234375 603.9320068359375 600.55169677734375 594.0482177734375 585.34161376953125 578.11077880859375 573.01214599609375 568.8875732421875 566.329345703125 564.105224609375 559.0887451171875 552.45758056640625 547.21844482421875 542.1080322265625 537.72265625 532.67718505859375 528.5211181640625 527.123779296875 527.699951171875 526.41778564453125 522.43304443359375 515.09246826171875 507.86151123046875 501.986236572265625 497.411590576171875 493.596221923828125 489.6700439453125 485.063507080078125 480.0897216796875 475.2921142578125 470.366912841796875 466.13690185546875 462.633453369140625 460.512237548828125 458.26861572265625 453.394775390625 447.595062255859375 442.3961181640625 437.71173095703125 433.22698974609375 428.942108154296875 426.256439208984375 424.889068603515625 423.003082275390625 421.59234619140625 421.97412109375 422.709228515625 422.352569580078125 421.296905517578125 419.937774658203125 418.60687255859375 417.425018310546875 415.9117431640625 413.88934326171875 410.33563232421875 407.98480224609375 408.97332763671875 411.086334228515625 411.155975341796875 410.233001708984375 409.582366943359375 408.956085205078125 407.709503173828125 406.26922607421875 405.603302001953125 405.605316162109375 405.335845947265625 404.974761962890625 405.418914794921875 405.967529296875 406.458160400390625 407.027801513671875 407.575531005859375 407.76605224609375 407.999969482421875 408.55059814453125 409.1185302734375 409.686492919921875 409.837249755859375 409.30706787109375 407.362884521484375 405.065826416015625 403.21826171875 401.54486083984375 399.519927978515625 397.00494384765625 394.30267333984375 391.482818603515625 388.063232421875 383.916473388671875 379.36602783203125 374.514068603515625 369.946014404296875 362.2596435546875 359.669219970703125 359.045989990234375 358.723876953125
885.56256103515625 881.5501708984375 872.65185546875 860.22235107421875 849.576171875 841.23492431640625 833.133544921875 825.6796875 819.676513671875 813.3466796875 805.5615234375 795.6900634765625 779.77508544921875 768.69134521484375 757.2242431640625 748.09259033203125 740.11572265625 732.00823974609375 727.79840087890625 725.00311279296875 723.85272216796875 724.51611328125 724.1729736328125 722.213134765625 721.41583251953125 722.47540283203125 723.964599609375 726.746337890625 731.02520751953125 733.43743896484375 734.64093017578125 734.14166259765625 730.7784423828125 724.3192138671875 720.75103759765625 716.44989013671875 709.9510498046875 701.41864013671875 692.95880126953125 685.199951171875 678.57861328125 672.3778076171875 664.65496826171875 654.7994384765625 647.55035400390625 643.9766845703125 639.6165771484375 633.5179443359375 626.33013916015625 619.22247314453125 612.86822509765625 609.5882568359375 606.55322265625 605.58074951171875 601.17889404296875 596.61468505859375 595.6649169921875 596.66925048828125 597.0013427734375 595.24114990234375 590.80621337890625 583.5191650390625 576.646728515625 570.89581298828125 564.968017578125 560.77685546875 559.45330810546875 557.24005126953125 551.96356201171875 546.132568359375 541.1995849609375 536.56597900390625 531.66522216796875 527.3065185546875 523.374755859375 522.4049072265625 522.2012939453125 519.08392333984375 512.7674560546875 506.970703125 501.62115478515625 496.661224365234375 491.940948486328125 486.871917724609375 481.3726806640625 476.21783447265625 472.3214111328125 468.75689697265625 464.774383544921875 460.709716796875 456.062591552734375 452.774627685546875 449.353057861328125 445.125335693359375 440.438568115234375 436.091400146484375 431.826904296875 427.879669189453125 424.53192138671875 422.62994384765625 421.161590576171875 419.303985595703125 418.859893798828125 419.6876220703125 419.609405517578125 418.921295166015625 417.952667236328125 416.775177001953125 415.665313720703125 414.4066162109375 412.316314697265625 409.298583984375 406.565582275390625 408.7047119140625 411.9326171875 413.141815185546875 412.826507568359375 412.129852294921875 411.05047607421875 409.157867431640625 406.807861328125 405.153594970703125 404.50946044921875 404.19952392578125 404.316375732421875 405.1610107421875 405.677886962890625 406.206634521484375 406.71954345703125 407.22357177734375 407.5855712890625 408.301910400390625 408.876983642578125 409.4449462890625 410.059539794921875 410.470733642578125 410.20916748046875 408.955078125 406.775634765625 404.51641845703125 402.557769775390625 400.635101318359375 398.248138427734375 395.250244140625 392.05078125 388.3773193359375 384.171051025390625 379.952545166015625 375.373138427734375 371.404388427734375 366.68310546875 360.8841552734375 359.47271728515625 359.136993408203125
885.5657958984375 879.9996337890625 872.211181640625 861.25665283203125 850.5731201171875 840.2049560546875 829.6651611328125 820.75189208984375 813.44647216796875 807.38330078125 802.67724609375 796.640625 784.22369384765625 772.43292236328125 760.7159423828125 750.76434326171875 742.4420166015625 733.53643798828125 727.2813720703125 721.83978271484375 716.8863525390625 714.62420654296875 714.16314697265625 713.2412109375 713.27459716796875 714.89666748046875 716.3505859375 718.04119873046875 720.767578125 722.9151611328125 725.32659912109375 726.48321533203125 725.13134765625 720.033447265625 713.39129638671875 710.66461181640625 707.7960205078125 701.1378173828125 693.6015625 686.44488525390625 679.7105712890625 673.15679931640625 664.47247314453125 654.9962158203125 648.43145751953125 644.45025634765625 640.17529296875 634.60174560546875 627.80987548828125 620.7686767578125 613.102783203125 606.44073486328125 600.87799072265625 598.2598876953125 596.12603759765625 591.73297119140625 587.7919921875 587.44427490234375 588.6158447265625 588.76904296875 586.63128662109375 581.52215576171875 575.78546142578125 570.04315185546875 563.553466796875 557.8546142578125 555.17608642578125 554.3140869140625 550.90863037109375 545.96612548828125 541.306884765625 537.06793212890625 532.58831787109375 527.91119384765625 522.09027099609375 518.15020751953125 516.80126953125 514.00604248046875 509.75225830078125 505.603271484375 501.212371826171875 496.597320556640625 491.942413330078125 486.745758056640625 480.86749267578125 474.857147216796875 469.5147705078125 465.77447509765625 463.036102294921875 459.5369873046875 453.158111572265625 447.55731201171875 443.12127685546875 440.851959228515625 437.44512939453125 433.5711669921875 429.865509033203125 426.463653564453125 423.0439453125 420.3455810546875 418.722015380859375 416.92181396484375 415.99176025390625 416.423614501953125 416.522705078125 416.27886962890625 415.72906494140625 414.824005126953125 413.78045654296875 412.645355224609375 410.611358642578125 407.78106689453125 405.651885986328125 408.854400634765625 412.775970458984375 415.387969970703125 415.80712890625 415.147674560546875 413.25982666015625 410.40118408203125 407.699798583984375 405.733184814453125 404.400909423828125 403.55902099609375 403.55474853515625 404.512939453125 405.081451416015625 405.66217041015625 406.1043701171875 406.578643798828125 407.020538330078125 407.85687255859375 408.58660888671875 409.377471923828125 410.253326416015625 410.961700439453125 411.08935546875 410.485504150390625 408.578948974609375 405.977569580078125 403.67803955078125 401.777923583984375 399.5513916015625 396.527008056640625 393.095733642578125 389.46636962890625 385.530181884765625 381.653167724609375 377.4373779296875 374.072967529296875 370.92938232421875 364.550445556640625 361.67376708984375 360.6009521484375
885.4222412109375 879.4359130859375 871.9866943359375 861.9940185546875 851.48736572265625 840.45660400390625 829.28045654296875 819.580078125 811.0308837890625 803.65966796875 797.57171630859375 792.08514404296875 783.78436279296875 773.80120849609375 763.6705322265625 753.80267333984375 745.495361328125 736.71356201171875 728.59295654296875 721.87628173828125 713.96917724609375 708.65087890625 706.77789306640625 706.39697265625 707.18841552734375 708.55108642578125 709.5982666015625 710.57568359375 711.6810302734375 713.2713623046875 715.01123046875 716.01885986328125 715.73828125 713.10693359375 706.99700927734375 705.1375732421875 704.37109375 700.12579345703125 693.68585205078125 687.00048828125 680.37237548828125 673.595703125 664.57763671875 655.49200439453125 649.135986328125 644.51904296875 639.53668212890625 633.59051513671875 627.32147216796875 621.1478271484375 614.1614990234375 605.83331298828125 598.1400146484375 592.97393798828125 589.85150146484375 586.28192138671875 581.24005126953125 578.4049072265625 579.2564697265625 581.61614990234375 581.901123046875 579.2606201171875 574.964111328125 569.57635498046875 563.09063720703125 556.021484375 551.0982666015625 550.0621337890625 548.05841064453125 545.13580322265625 541.28948974609375 537.4888916015625 533.5447998046875 528.91888427734375 522.2298583984375 515.9658203125 511.667327880859375 508.3780517578125 505.37591552734375 502.8087158203125 499.71710205078125 495.797821044921875 491.61907958984375 486.947113037109375 481.314483642578125 474.60089111328125 467.46466064453125 462.354217529296875 459.42279052734375 456.819488525390625 450.775787353515625 444.086273193359375 437.8455810546875 435.40264892578125 433.497650146484375 430.39739990234375 427.409820556640625 424.451629638671875 421.37908935546875 418.304931640625 416.061981201171875 414.30810546875 413.307098388671875 413.327850341796875 413.5679931640625 413.634033203125 413.299072265625 412.69891357421875 411.833099365234375 410.716064453125 408.66241455078125 405.905242919921875 405.210113525390625 409.054107666015625 413.28839111328125 417.259185791015625 419.07177734375 418.026947021484375 414.833648681640625 411.025299072265625 408.358123779296875 406.568206787109375 404.8016357421875 403.21142578125 402.60565185546875 403.4510498046875 404.124969482421875 404.714508056640625 405.148681640625 405.640655517578125 406.046112060546875 406.65155029296875 407.62725830078125 408.915740966796875 410.212371826171875 411.2626953125 411.73046875 411.184173583984375 409.479583740234375 406.9139404296875 404.453643798828125 402.41973876953125 400.26580810546875 397.436981201171875 393.816436767578125 390.128570556640625 386.5467529296875 383.003570556640625 379.2213134765625 376.364471435546875 373.05828857421875 369.798187255859375 365.7044677734375 363.202880859375
884.7615966796875 879.279541015625 871.90362548828125 862.2052001953125 852.2537841796875 841.2576904296875 830.005859375 820.29364013671875 811.2569580078125 802.95050048828125 794.74444580078125 787.1749267578125 780.11279296875 772.51788330078125 764.19036865234375 755.77484130859375 748.15283203125 739.66888427734375 730.371337890625 722.531982421875 713.70196533203125 706.6273193359375 702.23284912109375 700.8411865234375 701.488037109375 702.0367431640625 702.3831787109375 703.02215576171875 703.6119384765625 705.11151123046875 705.61639404296875 705.56671142578125 705.17706298828125 704.30975341796875 701.75860595703125 700.35736083984375 699.94720458984375 698.0164794921875 693.5489501953125 687.41986083984375 680.775634765625 673.86376953125 665.2767333984375 656.508056640625 649.69476318359375 644.2298583984375 638.26995849609375 631.56890869140625 625.2662353515625 619.2265625 613.1519775390625 605.84759521484375 597.785888671875 591.0614013671875 584.01513671875 580.0108642578125 575.21319580078125 570.17620849609375 570.06805419921875 574.27349853515625 576.65283203125 576.2305908203125 573.6290283203125 568.93145751953125 562.44171142578125 554.35650634765625 547.498779296875 545.0096435546875 543.35333251953125 542.62744140625 540.13031005859375 536.39508056640625 532.84912109375 528.7003173828125 522.12432861328125 515.3887939453125 508.36273193359375 503.858917236328125 499.837982177734375 498.273681640625 496.639129638671875 493.394683837890625 489.421478271484375 485.22210693359375 480.18017578125 473.644989013671875 466.419677734375 459.9366455078125 454.177215576171875 451.3272705078125 447.154937744140625 442.281036376953125 435.945404052734375 430.292327880859375 429.033111572265625 426.829833984375 424.4495849609375 421.834320068359375 419.203125 416.59503173828125 413.85968017578125 411.6500244140625 410.710540771484375 410.815155029296875 411.18768310546875 411.224029541015625 410.760162353515625 410.263214111328125 409.657012939453125 408.616790771484375 406.306365966796875 404.021820068359375 404.68988037109375 408.745391845703125 413.366424560546875 418.070343017578125 422.243194580078125 419.881927490234375 414.93829345703125 410.756622314453125 408.19622802734375 406.440948486328125 404.503692626953125 402.490447998046875 401.50323486328125 402.25653076171875 402.95050048828125 403.440216064453125 404.014404296875 404.56842041015625 405.032440185546875 405.427947998046875 406.547882080078125 408.4578857421875 410.054473876953125 411.2789306640625 411.7802734375 411.021087646484375 409.25714111328125 406.908935546875 404.60455322265625 402.610321044921875 400.597320556640625 397.8028564453125 393.944366455078125 390.1990966796875 386.632598876953125 383.230224609375 379.983184814453125 377.574737548828125 374.34552001953125 371.83905029296875 369.5767822265625 367.136016845703125
883.1339111328125 878.3388671875 871.349853515625 861.9056396484375 852.92144775390625 841.89044189453125 830.11279296875 820.72210693359375 811.7681884765625 804.00140380859375 796.44964599609375 786.44097900390625 777.03289794921875 770.005126953125 762.3614501953125 756.1177978515625 749.72955322265625 741.2662353515625 732.04150390625 722.10235595703125 713.75927734375 706.50262451171875 699.52960205078125 695.33447265625 694.11376953125 693.9967041015625 694.346435546875 694.823974609375 695.57794189453125 697.62213134765625 698.63323974609375 698.1378173828125 697.2308349609375 696.0736083984375 695.07379150390625 694.52178955078125 694.00531005859375 693.3790283203125 693.050537109375 688.3438720703125 681.09814453125 673.83111572265625 665.82257080078125 657.31304931640625 649.56719970703125 642.96514892578125 636.44854736328125 629.2926025390625 622.52838134765625 616.146728515625 610.45855712890625 605.08148193359375 598.6011962890625 591.629638671875 584.1993408203125 576.01226806640625 568.52313232421875 562.86474609375 562.89794921875 567.2891845703125 570.54803466796875 571.4071044921875 571.120849609375 567.843994140625 561.45660400390625 553.5982666015625 545.70330810546875 540.74066162109375 538.36248779296875 538.60760498046875 537.460693359375 533.855712890625 530.1484375 525.61480712890625 519.76568603515625 513.447509765625 508.26177978515625 502.683990478515625 495.601593017578125 492.995819091796875 492.195068359375 489.66705322265625 485.960418701171875 482.027618408203125 477.45166015625 471.575958251953125 464.921478271484375 458.62103271484375 451.55010986328125 445.088470458984375 440.3118896484375 437.874755859375 433.463348388671875 428.7503662109375 425.276153564453125 422.56146240234375 420.582763671875 418.918609619140625 416.81695556640625 414.516754150390625 411.995819091796875 409.43695068359375 407.846435546875 407.819549560546875 408.36932373046875 408.32568359375 407.87518310546875 407.27496337890625 406.821319580078125 406.31561279296875 404.50494384765625 402.07403564453125 403.823150634765625 407.800567626953125 411.5819091796875 414.78192138671875 416.010162353515625 414.910980224609375 411.7755126953125 409.210693359375 407.503997802734375 405.7076416015625 403.615631103515625 401.51068115234375 400.45147705078125 401.0411376953125 401.69781494140625 402.075927734375 402.67803955078125 402.918304443359375 403.009735107421875 403.713134765625 405.06903076171875 406.792816162109375 408.551513671875 410.0057373046875 410.104888916015625 408.937896728515625 407.3526611328125 405.643646240234375 403.948394775390625 402.235107421875 400.169921875 397.280975341796875 393.506622314453125 389.783294677734375 386.508331298828125 383.303802490234375 380.069183349609375 377.67706298828125 374.6785888671875 372.568603515625 370.046783447265625 368.347076416015625
879.73974609375 875.27142333984375 869.48919677734375 861.095458984375 851.56170654296875 840.58636474609375 830.03131103515625 821.2442626953125 812.253173828125 804.4129638671875 798.0291748046875 790.27679443359375 780.4599609375 771.49658203125 762.58734130859375 753.9576416015625 747.21673583984375 739.78997802734375 732.855224609375 724.310791015625 714.67230224609375 706.20843505859375 698.83984375 692.2110595703125 686.577392578125 684.49920654296875 685.951416015625 687.2515869140625 687.49554443359375 688.45892333984375 690.67962646484375 691.08062744140625 689.80712890625 689.100830078125 688.33184814453125 687.78240966796875 687.62786865234375 688.06768798828125 688.95880126953125 686.84014892578125 680.869384765625 673.6556396484375 664.6573486328125 655.673095703125 648.316650390625 641.6966552734375 634.6815185546875 627.1668701171875 619.9417724609375 613.17138671875 607.23663330078125 601.20947265625 594.505615234375 588.5391845703125 582.648193359375 575.1884765625 567.3536376953125 560.5877685546875 558.12939453125 558.83319091796875 561.4444580078125 563.51068115234375 564.87310791015625 563.8668212890625 559.061767578125 552.3251953125 546.00433349609375 540.7044677734375 536.3609619140625 534.17535400390625 533.4417724609375 531.59710693359375 527.28863525390625 522.44573974609375 516.168212890625 508.938385009765625 503.438018798828125 499.454193115234375 493.37298583984375 487.32403564453125 484.42401123046875 482.83319091796875 480.46636962890625 477.461761474609375 473.764007568359375 468.864166259765625 463.182830810546875 457.204620361328125 450.57720947265625 443.37005615234375 437.61328125 433.1636962890625 428.557861328125 425.250335693359375 422.333099365234375 420.579559326171875 418.644561767578125 416.430633544921875 413.715423583984375 411.603424072265625 409.740814208984375 407.301483154296875 404.92791748046875 404.214569091796875 404.822418212890625 404.995880126953125 404.742340087890625 404.205535888671875 404.073577880859375 403.8065185546875 402.4921875 399.922088623046875 401.824981689453125 405.1121826171875 407.876251220703125 409.828857421875 409.6112060546875 408.4014892578125 407.458770751953125 407.320465087890625 406.3592529296875 404.3990478515625 402.3056640625 400.28863525390625 399.24224853515625 399.740692138671875 400.35687255859375 400.708648681640625 401.01910400390625 401.02728271484375 401.04248046875 401.498443603515625 403.01373291015625 404.6568603515625 405.920135498046875 406.76971435546875 406.707794189453125 406.12054443359375 405.32586669921875 404.3829345703125 403.294952392578125 401.8321533203125 399.57940673828125 396.382537841796875 392.6429443359375 389.103546142578125 386.0992431640625 383.2425537109375 380.278472900390625 377.3743896484375 374.092254638671875 371.40771484375 369.4957275390625 368.548370361328125
872.883544921875 866.9261474609375 861.84246826171875 856.7147216796875 849.685546875 839.5606689453125 829.2403564453125 820.43218994140625 811.62310791015625 803.77056884765625 797.07574462890625 790.53662109375 781.89959716796875 773.42431640625 764.81817626953125 755.70916748046875 747.47125244140625 738.83984375 731.15179443359375 722.628662109375 713.15869140625 704.9876708984375 698.3621826171875 691.94915771484375 684.6639404296875 678.7349853515625 677.1812744140625 678.374755859375 678.79278564453125 679.43768310546875 682.2708740234375 684.60260009765625 683.0638427734375 679.37945556640625 677.32464599609375 678.04229736328125 680.4471435546875 681.9759521484375 682.84625244140625 682.66156005859375 678.9652099609375 671.8414306640625 662.6898193359375 653.9990234375 646.93658447265625 640.48162841796875 633.4910888671875 626.3177490234375 619.69854736328125 613.03802490234375 606.71923828125 600.55950927734375 592.5716552734375 586.55230712890625 581.08660888671875 572.35931396484375 566.53363037109375 560.8885498046875 557.46478271484375 554.5052490234375 553.86981201171875 555.28204345703125 557.2877197265625 558.33258056640625 556.30487060546875 551.32598876953125 545.60662841796875 540.1424560546875 535.609375 531.6163330078125 528.580078125 527.56158447265625 523.88330078125 518.9063720703125 512.67242431640625 506.1939697265625 500.484832763671875 496.39593505859375 491.31927490234375 484.15069580078125 478.0240478515625 475.796478271484375 475.138336181640625 473.229644775390625 469.928009033203125 465.766845703125 460.78765869140625 454.817657470703125 448.445709228515625 441.669891357421875 436.12457275390625 431.28155517578125 426.38397216796875 422.1170654296875 419.173614501953125 418.08087158203125 416.470733642578125 414.135711669921875 411.335845947265625 409.079681396484375 407.51177978515625 405.230316162109375 402.3289794921875 400.956268310546875 401.312286376953125 401.59161376953125 401.605804443359375 401.319549560546875 401.270904541015625 401.07928466796875 400.010986328125 397.73187255859375 399.104705810546875 401.65850830078125 403.50701904296875 404.273345947265625 403.28900146484375 402.196746826171875 402.8214111328125 404.28875732421875 404.76287841796875 403.508270263671875 401.399139404296875 399.41192626953125 398.1103515625 398.100799560546875 398.701080322265625 399.0418701171875 399.166534423828125 399.122283935546875 399.095855712890625 399.5614013671875 400.889190673828125 402.405670166015625 403.174346923828125 403.473663330078125 403.801422119140625 404.07843017578125 403.834442138671875 403.234771728515625 402.51171875 401.36468505859375 399.146636962890625 395.8194580078125 392.196441650390625 388.846221923828125 386.028656005859375 383.358642578125 380.570648193359375 377.41705322265625 374.0653076171875 370.891998291015625 368.19952392578125 367.291259765625
868.403564453125 861.92987060546875 856.21612548828125 851.2545166015625 845.13348388671875 836.95440673828125 828.26556396484375 819.71728515625 810.77874755859375 802.444091796875 794.997802734375 787.41070556640625 779.807373046875 773.5418701171875 766.11932373046875 757.44964599609375 748.3583984375 739.25341796875 730.5399169921875 721.9150390625 713.6346435546875 706.22705078125 699.61700439453125 692.86907958984375 684.6982421875 676.3955078125 671.365966796875 670.67156982421875 671.37457275390625 671.48492431640625 673.61932373046875 676.79473876953125 675.65087890625 669.91973876953125 665.018798828125 667.111083984375 670.43817138671875 672.95703125 675.127197265625 676.422119140625 674.89215087890625 669.03131103515625 660.42767333984375 652.1007080078125 645.19598388671875 638.794189453125 632.03338623046875 625.19659423828125 618.71636962890625 612.11737060546875 605.23809814453125 598.4573974609375 590.4769287109375 585.173828125 580.73663330078125 572.9376220703125 568.525390625 563.779052734375 559.5213623046875 554.44097900390625 550.52935791015625 549.126220703125 549.869140625 551.61474609375 552.26568603515625 550.01593017578125 544.97369384765625 539.27069091796875 535.06365966796875 530.53350830078125 525.7305908203125 522.373291015625 518.18975830078125 513.935791015625 508.521240234375 503.315582275390625 497.786712646484375 493.4549560546875 488.3062744140625 481.214385986328125 473.4739990234375 469.41009521484375 469.17919921875 468.552001953125 465.83270263671875 462.071807861328125 457.149261474609375 451.239593505859375 445.40087890625 439.492034912109375 434.451263427734375 429.636871337890625 425.03973388671875 420.094329833984375 416.94769287109375 415.188751220703125 413.47027587890625 411.647918701171875 409.323822021484375 406.885223388671875 405.2783203125 403.3436279296875 400.528656005859375 398.43695068359375 397.975433349609375 398.24835205078125 398.407745361328125 398.21392822265625 398.0008544921875 397.8487548828125 397.104827880859375 395.182037353515625 395.862579345703125 397.872711181640625 399.1446533203125 399.075439453125 397.840850830078125 397.19183349609375 398.65484619140625 400.967559814453125 402.855743408203125 402.688079833984375 400.817596435546875 398.876708984375 397.196319580078125 396.413238525390625 396.806549072265625 397.1373291015625 397.225006103515625 397.23602294921875 397.321014404296875 398.01507568359375 399.002288818359375 400.27655029296875 400.721588134765625 400.948333740234375 401.85980224609375 402.84027099609375 402.830596923828125 402.22845458984375 401.605316162109375 400.66253662109375 398.612060546875 395.464630126953125 392.12066650390625 388.938323974609375 386.221893310546875 383.537322998046875 380.782379150390625 377.765289306640625 374.636322021484375 371.455963134765625 366.99505615234375 364.87353515625
